ply
format ascii 1.0
comment PYTHON generated
element vertex 619
property float x
property float y
property float z
end_header
-2.388026109866115965e-01 -1.022339459010619678e-02 -1.758565253112689408e-01
-2.374249333203522494e-01 -2.770265794956372485e-03 -1.814398796250669410e-01
-2.357526693559739983e-01 4.829127703555299855e-03 -1.868116005361894483e-01
-2.360714975764469648e-01 1.142043416426756497e-02 -1.935947458526570686e-01
-2.344569883892790585e-01 1.898869503539768466e-02 -1.990053353329735708e-01
-2.327184854861024943e-01 2.662077038299141829e-02 -2.043287797293695252e-01
-2.307704529612843447e-01 3.435768556529589235e-02 -2.095030429874164546e-01
-2.296807729665216180e-01 4.165689957879337157e-02 -2.152824255976370782e-01
-2.288019016568654806e-01 4.884395598297809615e-02 -2.212063388993079915e-01
-2.274841139173606752e-01 5.625695260595704739e-02 -2.268221565166311238e-01
-2.255362411355948116e-01 6.399400095839610780e-02 -2.319962810380458151e-01
-2.242286159787737765e-01 7.139846351040876615e-02 -2.376165093124218974e-01
-2.220031477227741856e-01 7.928109232873536971e-02 -2.425988080895190580e-01
-2.191270296445674837e-01 8.750464126325316339e-02 -2.471308005615503456e-01
-2.159152530791670910e-01 9.590584405373414612e-02 -2.514328720769813397e-01
-2.125585411608889586e-01 1.043898109880012359e-01 -2.556405239082074066e-01
-1.167385580891805857e-01 -1.873140299622656213e-01 1.608571144326968461e-01
-1.379368731351685307e-01 -1.897451144564682446e-01 1.376733014497628083e-01
-1.537683178732319744e-01 -1.898136255972246444e-01 1.186611271467319373e-01
-1.583051903777266678e-01 -1.848013014508876617e-01 1.083213388027962631e-01
-1.675224159367341148e-01 -1.819440272816467696e-01 9.443609295445204443e-02
-1.722214769180948624e-01 -1.770530220277152789e-01 8.401880203204989406e-02
-1.844141314865970493e-01 -1.756253552793936579e-01 6.793727492369991405e-02
-1.840692044352533752e-01 -1.684597106137553368e-01 6.138781460704875736e-02
-1.986865036719848432e-01 -1.682228718165455217e-01 4.354156663519115344e-02
-2.039376612445439885e-01 -1.636874127792797284e-01 3.280486283773123568e-02
-2.136082582361043536e-01 -1.612337525368734426e-01 1.876542256395155595e-02
-2.186557203503884383e-01 -1.566542268342965560e-01 8.231093879880413411e-03
-2.303673335373072062e-01 -1.552211621866292912e-01 -7.276059124940309486e-03
-2.373035229032502968e-01 -1.515841625550776173e-01 -1.917025708369432535e-02
-2.362909537069921573e-01 -1.442220851535185033e-01 -2.510665083884257298e-02
-2.403141274318335019e-01 -1.392459684679104859e-01 -3.479227442377982871e-02
-2.406631377824776374e-01 -1.325425349753379112e-01 -4.172883711255608030e-02
-2.415797974910997570e-01 -1.261155615235655392e-01 -4.908088581731939737e-02
-2.413186015525279338e-01 -1.191340239815750629e-01 -5.555251271253022760e-02
-2.417669529687241636e-01 -1.124974745853697389e-01 -6.254376241162720729e-02
-2.433696492027782599e-01 -1.064235956380953918e-01 -7.037945590370232873e-02
-2.446348478512602731e-01 -1.001973124923225544e-01 -7.795639659168877855e-02
-2.452780678279193882e-01 -9.367854689479643282e-02 -8.506842286557435295e-02
-2.470018229789462394e-01 -8.769225006646547138e-02 -9.296439251779983759e-02
-2.481604295281080730e-01 -8.144178112567862504e-02 -1.004366363958500152e-01
-2.493967504132796609e-01 -7.523622457065125280e-02 -1.079584046497199801e-01
-2.496696329777175760e-01 -6.856872303848773886e-02 -1.147685428598268220e-01
-2.473387941302273574e-01 -6.062639410661337103e-02 -1.196800639421381207e-01
-2.469503953767429039e-01 -5.364073213132929119e-02 -1.260024294110698717e-01
-2.465346834736366066e-01 -4.664598501773904032e-02 -1.323007153012223103e-01
-2.455982068136984275e-01 -3.939676858240571955e-02 -1.382190932860208887e-01
-2.455639535486279501e-01 -3.259897692588699381e-02 -1.447853370507708459e-01
-2.438979812254758184e-01 -2.498978548342650763e-02 -1.501739323087035172e-01
-2.423651718725937099e-01 -1.744897978241607278e-02 -1.556569686303054534e-01
-2.404431734339317894e-01 -9.713831963815526549e-03 -1.608599619140298476e-01
-2.388343394164892108e-01 -2.133891623347393407e-03 -1.662889724549783954e-01
-2.375585382571857584e-01 5.275787792578937041e-03 -1.719542295444468349e-01
-2.360263453758037477e-01 1.281471196820040126e-02 -1.774357191522263899e-01
-2.357121783089650702e-01 1.973243492273764332e-02 -1.837817215350674438e-01
-2.337904881060534623e-01 2.746664197864373547e-02 -1.889839414618810776e-01
-2.320779281671533356e-01 3.509567627450269067e-02 -1.943356893686251086e-01
-2.303370617502089601e-01 4.273775851464758913e-02 -1.996662430192854276e-01
-2.299302560518482752e-01 4.969321906552538748e-02 -2.059370733542427723e-01
-2.282659508994376862e-01 5.729421855575637934e-02 -2.113201754400496069e-01
-2.263729440314933283e-01 6.501329638678531031e-02 -2.165422510140740942e-01
-2.242413698507262909e-01 7.285683876392060054e-02 -2.215976201787048794e-01
-2.211930707721461165e-01 8.117947959831234295e-02 -2.260140886896305767e-01
-2.178287184089583717e-01 8.967049001680771347e-02 -2.302136224267485320e-01
-2.152366123191552516e-01 9.776315142630861987e-02 -2.349562291561775318e-01
-2.131409951926497293e-01 1.055961926135718654e-01 -2.400449471084872277e-01
-1.183131589476981577e-01 -1.870576421935348788e-01 1.769621340487172456e-01
-1.418552102894554967e-01 -1.905407575407160881e-01 1.518766748121609389e-01
-1.537949028408654994e-01 -1.888425190813458054e-01 1.357805202205990547e-01
-1.614459955752272635e-01 -1.852360544748663518e-01 1.230158991893969267e-01
-1.663874672196336280e-01 -1.804203124880948139e-01 1.123545712420217502e-01
-1.745307900533771828e-01 -1.770947463835862989e-01 9.926804099939434689e-02
-1.803367371137511443e-01 -1.727250141661285654e-01 8.799215760773179684e-02
-1.858774079985988925e-01 -1.682569222292081557e-01 7.694307067430922187e-02
-1.901658985592674656e-01 -1.632318035425464331e-01 6.686640472487803688e-02
-2.038584496965283599e-01 -1.625944182920956160e-01 4.968242854042589918e-02
-2.102928948695827749e-01 -1.586214482113520452e-01 3.803444510192610650e-02
-2.176822503194113245e-01 -1.551220854335773058e-01 2.568976365362324321e-02
-2.244118646958398189e-01 -1.513413673627511113e-01 1.387068960364959413e-02
-2.363589758970021937e-01 -1.500429883178399371e-01 -1.843433586463077978e-03
-2.368187370767430022e-01 -1.433617094029013272e-01 -8.900891589973869422e-03
-2.369888324800160651e-01 -1.365504250906773576e-01 -1.573384659658813578e-02
-2.416044632354520938e-01 -1.318585871005927279e-01 -2.588304475422804896e-02
-2.422028681268431349e-01 -1.252698702733883174e-01 -3.301804809513263217e-02
-2.427087828794096125e-01 -1.186444897826723355e-01 -4.007724476787435930e-02
-2.434903638201813825e-01 -1.121591117667438964e-01 -4.733297669471496494e-02
-2.439526596919148749e-01 -1.055269839435336449e-01 -5.434617416453607630e-02
-2.455115692240509573e-01 -9.943236287162417197e-02 -6.216239807159319730e-02
-2.462892906585370245e-01 -9.296793021009233660e-02 -6.939358114539727340e-02
-2.471165684436867072e-01 -8.653643592286311415e-02 -7.665245971865881913e-02
-2.490041259780551297e-01 -8.062986591647164358e-02 -8.468235455035089121e-02
-2.502417178486603389e-01 -7.441749917377131485e-02 -9.222586323859349733e-02
-2.509622775424995011e-01 -6.795833095277123426e-02 -9.938167138948973689e-02
-2.513818906758217842e-01 -6.136155545446168869e-02 -1.063095370428627229e-01
-2.489553409706127263e-01 -5.336249106065849707e-02 -1.111576560838858779e-01
-2.483745980325320901e-01 -4.627730214479048448e-02 -1.173484564332915592e-01
-2.471402356031012215e-01 -3.887019892842424884e-02 -1.230641344567644652e-01
-2.455946717895420295e-01 -3.130984491613426901e-02 -1.285505733641712778e-01
-2.456880568709885471e-01 -2.456947420231456874e-02 -1.352226298304368968e-01
-2.438965609034313697e-01 -1.689055736695424526e-02 -1.405284426726510216e-01
-2.421239737954328786e-01 -9.219109863131728921e-03 -1.458488577797948382e-01
-2.406366214875318155e-01 -1.691903173746754641e-03 -1.513727572792056275e-01
-2.389107367369180113e-01 5.955006234956664035e-03 -1.567278974663214863e-01
-2.371481749692593843e-01 1.362020070360592250e-02 -1.620538537344434482e-01
-2.351288558729554279e-01 2.141792831550444476e-02 -1.671978770133973058e-01
-2.351427448908329221e-01 2.817561413675795379e-02 -1.737905161207466964e-01
-2.334087753362611983e-01 3.582440569249877027e-02 -1.791359015207490690e-01
-2.315222772234129811e-01 4.355106701675093284e-02 -1.843736515693425726e-01
-2.292649960354322114e-01 5.147017054640332101e-02 -1.893489258414340903e-01
-2.292624882002175790e-01 5.822424487381404334e-02 -1.959192188093113463e-01
-2.272056933716080085e-01 6.603959169498516135e-02 -2.010347518524329691e-01
-2.249479554551787885e-01 7.396070992016115508e-02 -2.060114341017139361e-01
-2.209373349533679531e-01 8.279509553058503335e-02 -2.097563503927331041e-01
-2.170190909677928992e-01 9.158912958353876421e-02 -2.135756550692920475e-01
-2.141107932319903928e-01 9.986082474861554537e-02 -2.181059980826782763e-01
-2.114590244606103231e-01 1.080009941182042688e-01 -2.228189780738283332e-01
-1.448442972486347069e-01 -1.909156606335392636e-01 1.668303825147593455e-01
-1.567572846143694132e-01 -1.892001601141782563e-01 1.506943479037020639e-01
-1.627812885411856203e-01 -1.848467059762489151e-01 1.391402190560256935e-01
-1.692797328434199333e-01 -1.807336474812138438e-01 1.272457865456800286e-01
-1.751102376457074894e-01 -1.763410394400484194e-01 1.158881345034001864e-01
-1.826410568148396363e-01 -1.727562906275860732e-01 1.032513079399707268e-01
-1.867052246759423884e-01 -1.675979417682330053e-01 9.329378310484801040e-02
-1.922729879946964149e-01 -1.631561250993331380e-01 8.220718805449778177e-02
-1.972369381034655700e-01 -1.584560269826680856e-01 7.160169992452564136e-02
-2.099990524830817606e-01 -1.574142155799199694e-01 5.509183136407655446e-02
-2.145551311422781715e-01 -1.525775160350817949e-01 4.484962827070526625e-02
-2.218377320821181831e-01 -1.490414038762712390e-01 3.256330835719947747e-02
-2.378309305098668669e-01 -1.496354751406610561e-01 1.372542914930857672e-02
-2.380773271156642890e-01 -1.428441693385629763e-01 6.810282051132182657e-03
-2.390682359211142305e-01 -1.364127732018208528e-01 -6.571814074626536328e-04
-2.396374578009488610e-01 -1.297880226651528246e-01 -7.802180862519242366e-03
-2.436979932059835929e-01 -1.248372825979769812e-01 -1.755399183149011777e-02
-2.437647755338780142e-01 -1.179921305734200621e-01 -2.430275213828422820e-02
-2.450657665878606395e-01 -1.117470187601400933e-01 -3.196645799677112765e-02
-2.457198732165365440e-01 -1.051971347018179903e-01 -3.913958469654017780e-02
-2.454617976779005506e-01 -9.821443154832190658e-02 -4.562831188465842069e-02
-2.466746375133189728e-01 -9.195179567900560458e-02 -5.320283529168204351e-02
-2.479657395350760019e-01 -8.573481320294146224e-02 -6.082590161266614170e-02
-2.488254712776915012e-01 -7.931554274558158535e-02 -6.812167706316281379e-02
-2.502817539461669183e-01 -7.319845914030306822e-02 -7.584805375077348366e-02
-2.511835287055719790e-01 -6.681695484745256430e-02 -8.315823966520669019e-02
-2.522853342149457001e-01 -6.054557570323815252e-02 -9.060655177401805149e-02
-2.529649949512097207e-01 -5.407044432789565036e-02 -9.773734841032202803e-02
-2.501972814634407793e-01 -4.589568213868955304e-02 -1.023410231349676514e-01
-2.494612707154401920e-01 -3.872891841684709957e-02 -1.084290954422611752e-01
-2.483102865413902294e-01 -3.135625521986611097e-02 -1.142122230185394077e-01
-2.470453913624898468e-01 -2.392837820245526798e-02 -1.199126855362668276e-01
-2.456397051378119145e-01 -1.643224799208120590e-02 -1.255075442260237262e-01
-2.440259044782540632e-01 -8.832493621712705911e-03 -1.309509813804478895e-01
-2.421562599469464228e-01 -1.104235499141500987e-03 -1.362096695913240785e-01
-2.402388859787696895e-01 6.648902215637284008e-03 -1.414350303939852505e-01
-2.386537911548867741e-01 1.423594156705637603e-02 -1.468993149629125861e-01
-2.368412163081167754e-01 2.193608910553161706e-02 -1.521989837087670827e-01
-2.349517494603535483e-01 2.967584595068786801e-02 -1.574458856090924785e-01
-2.343251051182442812e-01 3.676947254098987539e-02 -1.635941860876841958e-01
-2.326075324167653502e-01 4.442187559057321489e-02 -1.689619176271592582e-01
-2.307283192735662680e-01 5.215437205279413457e-02 -1.742136566998679081e-01
-2.286497604730712008e-01 5.999397162036559927e-02 -1.793251576124140489e-01
-2.275591578243328361e-01 6.731972612286460378e-02 -1.851372876121256394e-01
-2.251761122583220143e-01 7.531673842589353685e-02 -1.900335281272877430e-01
-2.220787225697883061e-01 8.368827631338537909e-02 -1.944284701528953274e-01
-2.179242264266022799e-01 9.261708901507584302e-02 -1.980825972927340861e-01
-2.139015230683395385e-01 1.014835600618878564e-01 -2.018353894278095140e-01
-2.108196167760017503e-01 1.098627388342694189e-01 -2.062554935472687423e-01
-1.540264158931394234e-01 -1.940884531084973441e-01 1.770078705231870053e-01
-1.584040768088978146e-01 -1.889580712467400225e-01 1.666689287564719346e-01
-1.639354006221641624e-01 -1.843720027253893112e-01 1.554565444660764295e-01
-1.712938086933127324e-01 -1.806423565725386315e-01 1.428543734640506102e-01
-1.803030906413250201e-01 -1.777007096514877094e-01 1.290063862653907933e-01
-1.826766092797704466e-01 -1.717388974211690456e-01 1.203008546406845181e-01
-1.868014619962252432e-01 -1.665989349914781537e-01 1.102618230928510967e-01
-1.922221388413116738e-01 -1.620775831817286017e-01 9.924796912493494272e-02
-1.991072243586319013e-01 -1.582601639484641498e-01 8.713356609392414187e-02
-2.044469428986939730e-01 -1.537488279693370319e-01 7.622929994128563314e-02
-2.179003295953131913e-01 -1.530590936602606866e-01 5.916008113783682854e-02
-2.237788669695516541e-01 -1.488568821721815150e-01 4.790059897642506836e-02
-2.335892965638718677e-01 -1.465333502971045698e-01 3.367842514268779008e-02
-2.355528417896695648e-01 -1.405353860660795706e-01 2.543727036345369563e-02
-2.370593932581525620e-01 -1.343318264617542890e-01 1.755198743832053765e-02
-2.384097839072515101e-01 -1.280639666553973766e-01 9.796052152385908984e-03
-2.382505495727600675e-01 -1.210867586414066110e-01 3.185277766144578582e-03
-2.419148896984229524e-01 -1.159451217366349318e-01 -6.293586344060769777e-03
-2.431033194854683166e-01 -1.096295361945062857e-01 -1.389983876389419559e-02
-2.439744047398572924e-01 -1.031715717332317706e-01 -2.125934310057270293e-02
-2.437382999708515019e-01 -9.618444154322880468e-02 -2.778437453597804030e-02
-2.435981108040336796e-01 -8.924908523316525677e-02 -3.437465281062482281e-02
-2.452555240296877825e-01 -8.319617238967301487e-02 -4.229804740641283922e-02
-2.460122631172567687e-01 -7.671066654311392563e-02 -4.954331855642302163e-02
-2.460831582392798977e-01 -6.990041304962775481e-02 -5.627232596082905325e-02
-2.487180455479023888e-01 -6.435307754051101947e-02 -6.489221645999385113e-02
-2.495289082706195760e-01 -5.792065702349147999e-02 -7.215110333756639960e-02
-2.494638079955739662e-01 -5.106330464004101705e-02 -7.875972315351199848e-02
-2.486930403194789474e-01 -4.386132275139906916e-02 -8.484383346714256813e-02
-2.483012541450631550e-01 -3.684997732123601599e-02 -9.120159262701191261e-02
-2.481079001710457810e-01 -2.994170560537592896e-02 -9.770240590142212356e-02
-2.470940543342329820e-01 -2.262956117284756208e-02 -1.035988605693466125e-01
-2.449292621660308367e-01 -1.473873817102830386e-02 -1.086534820634423859e-01
-2.430938962678896031e-01 -7.013996389063671677e-03 -1.139505163504774543e-01
-2.419402864647843265e-01 3.660597393391751275e-04 -1.197399695186749657e-01
-2.398594440220462864e-01 8.215732784529361510e-03 -1.248585103171681726e-01
-2.382045138025957465e-01 1.584922392836000948e-02 -1.302847210532769029e-01
-2.366440153773990418e-01 2.343329738486392422e-02 -1.357789842775725397e-01
-2.348559221876784509e-01 3.113517427014457495e-02 -1.411107539500120744e-01
-2.327183520472171641e-01 3.901563844562691563e-02 -1.461890285075563567e-01
-2.307787573787064284e-01 4.679504360232991655e-02 -1.514117651568317457e-01
-2.291611892689720542e-01 5.440722764292976743e-02 -1.568650478461491027e-01
-2.270794333693377798e-01 6.226093007916722044e-02 -1.619864045990219437e-01
-2.244853035144860065e-01 7.038304519877355836e-02 -1.667439159844248120e-01
-2.243955159036908897e-01 7.720160531683317728e-02 -1.732846222032312089e-01
-2.221905076324930395e-01 8.512213570106696992e-02 -1.783192013246323870e-01
-2.194333671505750427e-01 9.333038831988232920e-02 -1.829649441748369132e-01
-2.160492554968705403e-01 1.018736726214606592e-01 -1.871698291186464358e-01
-2.147349187089420131e-01 1.093297927714535767e-01 -1.928404738656984141e-01
-1.552624169359659023e-01 -1.936683647844854306e-01 1.933859451229715809e-01
-1.637995751027074565e-01 -1.904158749599182410e-01 1.797696815382834878e-01
-1.651705472026642196e-01 -1.839305839454739022e-01 1.717633214975077260e-01
-1.728538925823459027e-01 -1.803424918516960962e-01 1.588620713142976371e-01
-1.778038351598932310e-01 -1.755292620843127427e-01 1.481100598895462306e-01
-1.872178026488046654e-01 -1.727939450795573095e-01 1.339243373523690828e-01
-1.872524583488057170e-01 -1.657604611366400582e-01 1.270160252681599711e-01
-1.948981665694894672e-01 -1.622595701491931497e-01 1.142485707557885366e-01
-1.979456825145794741e-01 -1.566501094269272532e-01 1.050443874069033612e-01
-2.060339519804385566e-01 -1.534092495967856462e-01 9.198767801902865693e-02
-2.102600930131079127e-01 -1.483908409656715388e-01 8.191941641005529018e-02
-2.236462391197678867e-01 -1.476948880267341946e-01 6.486759091298249791e-02
-2.331155843735315814e-01 -1.451996612863884761e-01 5.085081533311391899e-02
-2.352186458730112228e-01 -1.392556805441647061e-01 4.247606006793355760e-02
-2.379329440983317945e-01 -1.336152947554840598e-01 3.364838834246725030e-02
-2.386007810561799614e-01 -1.270117982819170821e-01 2.638771880837476047e-02
-2.402158808869077899e-01 -1.208691208004942924e-01 1.841561903115671028e-02
-2.408681208259713102e-01 -1.142769531057757637e-01 1.118152987353907002e-02
-2.447019407427949989e-01 -1.092201298249634578e-01 1.557400630916444539e-03
-2.459970919782900611e-01 -1.029573676236420210e-01 -6.141300549758865746e-03
-2.470795830609000820e-01 -9.660052143775790801e-02 -1.366968386169042926e-02
-2.474410369688556099e-01 -8.990299873761438409e-02 -2.064981386007998243e-02
-2.464144027354853161e-01 -8.253444283042213336e-02 -2.658569188931036997e-02
-2.475963496252822083e-01 -7.624917598262545559e-02 -3.416663994034419005e-02
-2.483004522427777472e-01 -6.973809040617609534e-02 -4.138486805232430288e-02
-2.484241939897602613e-01 -6.294988626670985910e-02 -4.816256894995026017e-02
-2.513343872904346687e-01 -5.754069605494444017e-02 -5.700063485296863464e-02
-2.515278508103966915e-01 -5.080263160184834981e-02 -6.381499130079074100e-02
-2.514876900398962389e-01 -4.395394770279509311e-02 -7.045076351229150047e-02
-2.506953878751871923e-01 -3.673710355119344517e-02 -7.652659715291164344e-02
-2.499508151473479600e-01 -2.954513899179977282e-02 -8.263575820174717812e-02
-2.489809312972278144e-01 -2.224544448124789880e-02 -8.857538581277964174e-02
-2.478225269644603324e-01 -1.485261718552492727e-02 -9.437608218762616463e-02
-2.458823608258657312e-01 -7.066502091577976652e-03 -9.960234908530886389e-02
-2.438665581299878371e-01 7.578734641993031818e-04 -1.047737474771118227e-01
-2.427282044779008607e-01 8.138194689575023455e-03 -1.105855261739148027e-01
-2.410520817566480511e-01 1.578922864256220027e-02 -1.160041745310401579e-01
-2.386574111816810728e-01 2.380792855077645820e-02 -1.209033423592285605e-01
-2.369149921508128809e-01 3.149399197370580938e-02 -1.262747753372369941e-01
-2.353901425441272677e-01 3.906850500303225837e-02 -1.318031607061224686e-01
-2.334492913128599634e-01 4.685764214026490182e-02 -1.370315395695895500e-01
-2.316310073604835873e-01 5.458297337278651684e-02 -1.423488080303123571e-01
-2.293487639824328128e-01 6.254881565318365366e-02 -1.473334465659971726e-01
-2.268196738744398810e-01 7.064563328337744585e-02 -1.521438155447086271e-01
-2.239966926923083190e-01 7.889528381229013454e-02 -1.567444755924476962e-01
-2.228594808613418021e-01 8.627056829885690337e-02 -1.625527343462763730e-01
-2.194664845693712063e-01 9.482345203247843912e-02 -1.667520987399745136e-01
-2.165754937864185492e-01 1.031198787073868139e-01 -1.713125935999772476e-01
-2.135122657513225941e-01 1.115093617673500181e-01 -1.757550850806434417e-01
-1.575648534906457510e-01 -1.937249509097718203e-01 2.089801461718155950e-01
-1.662575668261025985e-01 -1.905377421740849786e-01 1.951933769196352308e-01
-1.702059921827402955e-01 -1.852181413910225505e-01 1.851490158582522194e-01
-1.715532631315694057e-01 -1.787293761490780231e-01 1.771530959834391461e-01
-1.796330945065575668e-01 -1.753410365828383388e-01 1.639217429776069213e-01
-1.846667424740990326e-01 -1.705801779720473865e-01 1.530898349237610478e-01
-1.907398014665323271e-01 -1.663194825631088558e-01 1.414714042526544202e-01
-1.947691611286629099e-01 -1.611374517730954081e-01 1.314613997413658364e-01
-2.002106349797661833e-01 -1.566310932834799330e-01 1.203771749109849298e-01
-2.049955626185147595e-01 -1.518407160981211090e-01 1.098213322115785262e-01
-2.109620625132780369e-01 -1.476247993941489089e-01 9.837758699850934763e-02
-2.165984737308338792e-01 -1.432778496933845847e-01 8.721065927174254107e-02
-2.316344164830400620e-01 -1.433894738609758912e-01 6.885871879029256681e-02
-2.342781748917339701e-01 -1.376866933772866730e-01 6.004111393423602894e-02
-2.370005385926261809e-01 -1.320352688763319904e-01 5.117779242403167062e-02
-2.402121432105523147e-01 -1.266303433614537066e-01 4.195397429920469379e-02
-2.409952431492566050e-01 -1.200835670712551151e-01 3.459250919434636584e-02
-2.417998775765755615e-01 -1.135516530440163485e-01 2.722276741647702836e-02
-2.430181163636444541e-01 -1.072279775410234642e-01 1.954739752986528467e-02
-2.472174510071963316e-01 -1.023526560148135256e-01 9.629327436960016806e-03
-2.484791029964014408e-01 -9.607279076290139996e-02 1.943771017979073479e-03
-2.492092653730837992e-01 -8.954572327898936701e-02 -5.331065651888788892e-03
-2.499601635231192831e-01 -8.303418390871003529e-02 -1.261487267792893441e-02
-2.490153101146075632e-01 -7.570139972224913805e-02 -1.861958762628755648e-02
-2.500133981004442063e-01 -6.932653829124856004e-02 -2.607483794948779743e-02
-2.499709332402685891e-01 -6.244647691958643554e-02 -3.274708559840162903e-02
-2.499783667175702606e-01 -5.559667337603058784e-02 -3.944774304080173044e-02
-2.529260186602579341e-01 -5.020894778558409460e-02 -4.833311306959556242e-02
-2.529084001294709116e-01 -4.336254678726782913e-02 -5.500165927997542614e-02
-2.523191895057548262e-01 -3.623554828057880262e-02 -6.124086165117129110e-02
-2.514475980752214901e-01 -2.897270923863618647e-02 -6.726955004958677653e-02
-2.505591519441002224e-01 -2.170308385933342882e-02 -7.328084083956012962e-02
-2.495570231723535093e-01 -1.437925200736291792e-02 -7.920876258238838952e-02
-2.476995501964671109e-01 -6.624554889515708866e-03 -8.450459099866064472e-02
-2.450223829540001674e-01 1.543063931351708329e-03 -8.919890767912702634e-02
-2.443701878614432943e-01 8.686293797596542077e-03 -9.537891655966146409e-02
-2.427759595876378684e-01 1.630524392381098309e-02 -1.008678201185382317e-01
-2.411352573206733130e-01 2.394772479738206672e-02 -1.063212946088492039e-01
-2.387207633102027549e-01 3.198630656386088067e-02 -1.112122166803268808e-01
-2.369668340120138494e-01 3.968936235025510850e-02 -1.165844547001436970e-01
-2.351929687747798536e-01 4.740022896527625040e-02 -1.219434881267861953e-01
-2.330989027735161090e-01 5.527864104998467254e-02 -1.270698841584689542e-01
-2.317604047488709962e-01 6.276539953003827665e-02 -1.327421183782701575e-01
-2.289660146607796209e-01 7.100703028172158926e-02 -1.373657481117307455e-01
-2.260009847510666692e-01 7.934304911980608055e-02 -1.418699870995313028e-01
-2.217666427241722082e-01 8.834517833248550778e-02 -1.454687664633121380e-01
-2.200480202576813871e-01 9.603599314550573252e-02 -1.508744123336904774e-01
-2.167767902912476063e-01 1.045411713951011623e-01 -1.551704411154882501e-01
-2.133819648473899433e-01 1.131188801821751966e-01 -1.593825185256263488e-01
-1.522249448263188476e-01 -1.903191246263084002e-01 2.306495086273445128e-01
-1.703133518419454040e-01 -1.913826362398757530e-01 2.094015428397730250e-01
-1.748435843393050526e-01 -1.863250516294988890e-01 1.988712107715726596e-01
-1.766110401964749721e-01 -1.800227468712347623e-01 1.905276668004927676e-01
-1.788649965999880853e-01 -1.739548529259048459e-01 1.818151783516531173e-01
-1.868944591758986418e-01 -1.705632356551183282e-01 1.686026349336968710e-01
-1.916310245653961020e-01 -1.656773569553370851e-01 1.579882827397010581e-01
-1.973771544420345470e-01 -1.612822728353279778e-01 1.466082759538158697e-01
-2.017332976548776857e-01 -1.562627757457933919e-01 1.363307191677262109e-01
-2.070255376981860462e-01 -1.517011910100990457e-01 1.253472939103559836e-01
-2.105531473772349615e-01 -1.463353133181972132e-01 1.157498027284784015e-01
-2.166757932391843999e-01 -1.422043084996612028e-01 1.041649770939483688e-01
-2.221335797205969964e-01 -1.377863954905826360e-01 9.311758438891157286e-02
-2.341066365344955935e-01 -1.364764213224578804e-01 7.708315101982679551e-02
-2.368827409888578095e-01 -1.308381547072590689e-01 6.814805697315706734e-02
-2.396340217993561672e-01 -1.252042979850618576e-01 5.924577814710177415e-02
-2.425571978751861479e-01 -1.196661781941167763e-01 5.022621023573728416e-02
-2.429156421533608667e-01 -1.129129519830885109e-01 4.317805728268497845e-02
-2.444717146728760115e-01 -1.067416384414797692e-01 3.522391052436701919e-02
-2.459649163461385957e-01 -1.005504056463565887e-01 2.732753897408807253e-02
-2.497056404734684376e-01 -9.545789958888137305e-02 1.773805837133526908e-02
-2.505503796192876109e-01 -8.897614710937325200e-02 1.035677361107631422e-02
-2.518929012145463275e-01 -8.274479045850227643e-02 2.606645426271092525e-03
-2.525353486536806580e-01 -7.618090961908745296e-02 -4.607036366409966721e-03
-2.515789860968948299e-01 -6.883951620484046741e-02 -1.060901580273607148e-02
-2.518217367084303326e-01 -6.209077478830447860e-02 -1.751064284154127404e-02
-2.518793911816353814e-01 -5.525562766734650605e-02 -2.426631936908003884e-02
-2.516286982639915903e-01 -4.827563002964843641e-02 -3.078572720003870666e-02
-2.537520920127533941e-01 -4.247998518798110079e-02 -3.907304360339831917e-02
-2.532799690455939112e-01 -3.540099937539754882e-02 -4.541449074428391408e-02
-2.527516898507944365e-01 -2.829793236976564999e-02 -5.171214139581267744e-02
-2.516895226595950996e-01 -2.093289441279509028e-02 -5.760823445539449417e-02
-2.505246105059604211e-01 -1.351554927369889858e-02 -6.342722422827103135e-02
-2.493787219535204824e-01 -6.110368707860941440e-03 -6.925869399486009326e-02
-2.474342168946655485e-01 1.694885993561240367e-03 -7.449833667584321306e-02
-2.459407919278668309e-01 9.274282961464805353e-03 -8.007209770140158445e-02
-2.443156877987322506e-01 1.691970947820600757e-02 -8.554861201434543760e-02
-2.429354898631578830e-01 2.443853153328633121e-02 -9.120360951039790942e-02
-2.415369534190607848e-01 3.196649611833979332e-02 -9.684401504695322460e-02
-2.382635749994530538e-01 4.045574860884301738e-02 -1.011155258920152233e-01
-2.366103353856807701e-01 4.811556334296838988e-02 -1.065712030958894663e-01
-2.349101650503007954e-01 5.580092351997444078e-02 -1.119928592083876823e-01
-2.330685185764699852e-01 6.355755893322936889e-02 -1.173110234586990513e-01
-2.304620775009420808e-01 7.171276683698560306e-02 -1.220771146767529042e-01
-2.275341802176750750e-01 8.003686905527995776e-02 -1.266126701601984761e-01
-2.238025276734245950e-01 8.878790230163935426e-02 -1.305740085783405058e-01
-2.195212526868279002e-01 9.783234322855763332e-02 -1.341458479584261287e-01
-2.168642270621040646e-01 1.060292141393843202e-01 -1.388891819026194796e-01
-2.131088700095861155e-01 1.148088710202803120e-01 -1.428507018163216735e-01
-1.508235159495379396e-01 -1.886909062821258420e-01 2.493011323283974567e-01
-1.618964158573362178e-01 -1.865533574258845528e-01 2.335132861654241054e-01
-1.692535159852153748e-01 -1.827610687501737552e-01 2.206993241186888666e-01
-1.760531814830210151e-01 -1.787422549916462544e-01 2.083548126501716946e-01
-1.831559657990909640e-01 -1.748915761533629820e-01 1.957978979603833269e-01
-1.851351717093882576e-01 -1.687044753956502552e-01 1.872918418277039754e-01
-1.883422897988397127e-01 -1.630977497656500852e-01 1.778344368439522816e-01
-1.937452982662425660e-01 -1.585264423741478690e-01 1.666758468583670050e-01
-2.011514740168054705e-01 -1.549126632008874793e-01 1.539767257003569756e-01
-2.054700107844618095e-01 -1.498830802080853286e-01 1.437102635427794928e-01
-2.134386894300369930e-01 -1.465857451654196120e-01 1.306266723200899538e-01
-2.170336054078946253e-01 -1.412590838525952797e-01 1.209645495409081839e-01
-2.247923869568010380e-01 -1.379178232648570201e-01 1.080962407092474487e-01
-2.303154266970975361e-01 -1.335468267763569306e-01 9.698496161723557663e-02
-2.328363530439969964e-01 -1.277701575929298117e-01 8.821083348227309884e-02
-2.350533845428975366e-01 -1.218640896062797158e-01 7.968493154456765537e-02
-2.362945814032637870e-01 -1.155021037095673164e-01 7.191932453333424458e-02
-2.393289110229597505e-01 -1.100109549779558216e-01 6.278982981033978672e-02
-2.420214133339033125e-01 -1.043707735383252039e-01 5.393564354324442700e-02
-2.441210378749589238e-01 -9.845744367011373399e-02 4.554921732840533366e-02
-2.450564209174231345e-01 -9.199137521271105733e-02 3.806059899360031418e-02
-2.477959902580892937e-01 -8.641112158835054236e-02 2.920749001165309777e-02
-2.491850801407110017e-01 -8.018668693156692784e-02 2.139461947803356079e-02
-2.499409625278609659e-01 -7.366308435774672481e-02 1.407096965198753602e-02
-2.497543754527462301e-01 -6.668305082342350365e-02 7.466452721875849186e-03
-2.516079973501741396e-01 -6.071422028743860694e-02 -6.719769345345794065e-04
-2.522487337361967175e-01 -5.415535904332822309e-02 -7.885627810914869196e-03
-2.520486038012693664e-01 -4.718733728203135247e-02 -1.446076902104051487e-02
-2.516530104008578572e-01 -4.012933732733539594e-02 -2.088370426489283282e-02
-2.529257215241677570e-01 -3.390636542175851087e-02 -2.855216085004950999e-02
-2.524301235320117187e-01 -2.680814645807907265e-02 -3.488954494405954732e-02
-2.514851576199578220e-01 -1.948743330125549122e-02 -4.088930105595413311e-02
-2.499780534852315550e-01 -1.188566573398878307e-02 -4.646878473805066134e-02
-2.486208533987724345e-01 -4.362758139490274800e-03 -5.215868880963367427e-02
-2.476118748193447683e-01 2.982911009657182588e-03 -5.810418965646321765e-02
-2.459464398455790679e-01 1.066274015053322866e-02 -6.356278386793026702e-02
-2.445434508586334932e-01 1.820615644910293651e-02 -6.921514690516329671e-02
-2.431406902359114219e-01 2.574856539991123017e-02 -7.486680595380121317e-02
-2.415597764576950524e-01 3.338053464691359551e-02 -8.038578922125935722e-02
-2.393589685605486683e-01 4.133307406741958123e-02 -8.544917204356571039e-02
-2.371473366078015177e-01 4.929120067242599712e-02 -9.050770738805589966e-02
-2.354162904170923887e-01 5.700303723995873983e-02 -9.591697425462111792e-02
-2.328552951361919643e-01 6.514343902912587969e-02 -1.007234327668382057e-01
-2.294091057562631375e-01 7.374922411328585503e-02 -1.048875515886524279e-01
-2.285345467098607863e-01 8.101677554045394469e-02 -1.109218512849582811e-01
-2.258878884122905717e-01 8.921007396230357100e-02 -1.156714406841584525e-01
-2.223166197470036742e-01 9.789074577655504372e-02 -1.197544137832586009e-01
-2.179886401649296368e-01 1.069764910699498861e-01 -1.232986091910547033e-01
-2.146966710680028867e-01 1.155223468402143683e-01 -1.275962892782029345e-01
-1.653658016339874248e-01 -1.871256986045163606e-01 2.482994527143440044e-01
-1.690966983516739019e-01 -1.816727086393623014e-01 2.383212079860795307e-01
-1.787930497852744105e-01 -1.789694880199587113e-01 2.236361788162657960e-01
-1.833405606501315732e-01 -1.739367784022370356e-01 2.130557698907679098e-01
-1.911539806331177260e-01 -1.704308944133290649e-01 1.999192295625581428e-01
-1.913955498426727908e-01 -1.634488521779841885e-01 1.927747504533275369e-01
-1.979607081119716117e-01 -1.594121417985519262e-01 1.806673078027866697e-01
-2.017692499799018935e-01 -1.541159939824082725e-01 1.707479581722201045e-01
-2.098222770942320958e-01 -1.508230610139613126e-01 1.575241706294480126e-01
-2.131961799752046804e-01 -1.453652013674738286e-01 1.479860859684378194e-01
-2.212248628596457656e-01 -1.421167632539003245e-01 1.348330382826171125e-01
-2.239029373295970127e-01 -1.363705109152923700e-01 1.258756296311209777e-01
-2.298550284071613214e-01 -1.321910366188834562e-01 1.143888514489467823e-01
-2.352466013781017995e-01 -1.277672464770334138e-01 1.033602497220409422e-01
-2.365894956739847399e-01 -1.214359222703674523e-01 9.548670620088101080e-02
-2.388277014653472086e-01 -1.155428593692410799e-01 8.693088744040922133e-02
-2.399523628108550244e-01 -1.091266498563560478e-01 7.924516044964788342e-02
-2.425595270016487892e-01 -1.034347366498924170e-01 7.042831511159841629e-02
-2.444350765357478084e-01 -9.740210481606231818e-02 6.218762899728813576e-02
-2.464523316915692708e-01 -9.145013870192220118e-02 5.384769556322627215e-02
-2.478303487069317690e-01 -8.519780551788562473e-02 4.600953296736384757e-02
-2.497044371186235012e-01 -7.920088775779120238e-02 3.780255786325498191e-02
-2.508637644551624524e-01 -7.286165457201179696e-02 3.015080382060167374e-02
-2.515577837471592582e-01 -6.630555338245446018e-02 2.286043187672601174e-02
-2.513956794481418400e-01 -5.933217363700508951e-02 1.622735457386911828e-02
-2.534485140518913382e-01 -5.346121324101801853e-02 7.924210042294294043e-03
-2.536632245920382167e-01 -4.668985798950647803e-02 1.019647386151845136e-03
-2.536359976735412247e-01 -3.980499379723898001e-02 -5.697280235150953276e-03
-2.531244379902619634e-01 -3.268271389225677059e-02 -1.204388631780575758e-02
-2.537277008820714719e-01 -2.612299971023123932e-02 -1.922196585067137420e-02
-2.528719155061613932e-01 -1.883691837789081003e-02 -2.530242563459200733e-02
-2.518863915042981461e-01 -1.148917838484916909e-02 -3.128142507976304498e-02
-2.506671284703382852e-01 -4.026123704130496472e-03 -3.708396255983174850e-02
-2.483421547447307309e-01 3.997273055419560406e-03 -4.206338370504500435e-02
-2.469080615382317490e-01 1.156817309227804735e-02 -4.770406148493995524e-02
-2.450044349895197093e-01 1.937876863434795371e-02 -5.299815123198135802e-02
-2.441149413314798178e-01 2.667003950572999216e-02 -5.904027524517616032e-02
-2.423338820616593170e-01 3.441682914308873131e-02 -6.442325458947391337e-02
-2.411347844500147664e-01 4.186268251174023181e-02 -7.023475212028078285e-02
-2.394481569744480731e-01 4.956005446177241813e-02 -7.568578395276560900e-02
-2.369815923687541570e-01 5.765942169929182126e-02 -8.056383550701003149e-02
-2.344480463607721832e-01 6.579684045003886261e-02 -8.539678364792167853e-02
-2.316325740363274766e-01 7.408485131187367290e-02 -9.002489094654483881e-02
-2.279032017771794316e-01 8.285096048765122623e-02 -9.398981114026219719e-02
-2.271745509646455052e-01 9.005308896004357577e-02 -1.001450807495441186e-01
-2.233123566029944218e-01 9.889864755914651306e-02 -1.040198147274622315e-01
-2.195042643100126867e-01 1.077208079593787726e-01 -1.079411405382495470e-01
-1.665398947591219536e-01 -1.938253235163925614e-01 2.719973134078207955e-01
-1.733013039090657847e-01 -1.897296473444287368e-01 2.595532457750689415e-01
-1.749074033261710237e-01 -1.833058060493964192e-01 2.512472949838525094e-01
-1.763969865568035256e-01 -1.768406619975025351e-01 2.430471192107331868e-01
-1.867048643131334895e-01 -1.744415088859057328e-01 2.278484770629352063e-01
-1.912453014822720343e-01 -1.694194871659606694e-01 2.172639472602052035e-01
-1.959102475857320558e-01 -1.644740253745420322e-01 2.065982820401940367e-01
-1.995346817380449500e-01 -1.590659716324423489e-01 1.967744905974008196e-01
-2.048026683788937707e-01 -1.544426768128460692e-01 1.856741630945211163e-01
-2.102697734318602629e-01 -1.499338608865171674e-01 1.744364339967257593e-01
-2.161421707954425675e-01 -1.456387771253142560e-01 1.629056681425466446e-01
-2.207226637599311037e-01 -1.407596662390658282e-01 1.524099419559692969e-01
-2.269026336036727987e-01 -1.366565522473023875e-01 1.406822709350376566e-01
-2.295645213754165248e-01 -1.309103810266663837e-01 1.317255579678248689e-01
-2.345319908275242393e-01 -1.262739300419189470e-01 1.209879036435084210e-01
-2.388358552237597188e-01 -1.213435365758012835e-01 1.107862433551937698e-01
-2.404516582468655683e-01 -1.151439720828273394e-01 1.026889028268541948e-01
-2.412345854587761851e-01 -1.085537379729742402e-01 9.524763045790396454e-02
-2.424370340528345102e-01 -1.021766294341849846e-01 8.748959813220907877e-02
-2.459291242026138691e-01 -9.691486732065092424e-02 7.797437856607153384e-02
-2.473794477251460289e-01 -9.067745876442606656e-02 7.004701490900080985e-02
-2.481905331072206122e-01 -8.413968313830516577e-02 6.262142209012844241e-02
-2.495900664018587956e-01 -7.789767449359603912e-02 5.475262837747091327e-02
-2.514477386320713714e-01 -7.189144736803262936e-02 4.654210441521020036e-02
-2.525262940138978118e-01 -6.551224623497811650e-02 3.893823051965750182e-02
-2.525073586971034456e-01 -5.860058440684057929e-02 3.217927599452949372e-02
-2.524528881843866590e-01 -5.167567425756718763e-02 2.545302533136820089e-02
-2.545628890049689286e-01 -4.583298196376354994e-02 1.708866809224995897e-02
-2.549317073245769838e-01 -3.913362705578532497e-02 1.005550300723642709e-02
-2.543497418946915056e-01 -3.196656855682596110e-02 3.746981062834914278e-03
-2.532646484630531880e-01 -2.455093711965561365e-02 -2.178035360611257909e-03
-2.538897696209513888e-01 -1.799886693076084565e-02 -9.387460304300432323e-03
-2.531801208431320171e-01 -1.077921590095744231e-02 -1.558818601260061887e-02
-2.518357785238135027e-01 -3.241274490147126597e-03 -2.130957776995461017e-02
-2.499494622850904901e-01 4.568903154718029214e-03 -2.662319770208909642e-02
-2.475760729108944513e-01 1.262858468544011958e-02 -3.157494395871268678e-02
-2.460171287832623177e-01 2.027336410462794725e-02 -3.713377202729932491e-02
-2.433996319307682454e-01 2.846031594768337614e-02 -4.190634141765345322e-02
-2.432360676283888135e-01 3.538959848371883710e-02 -4.850216715646699095e-02
-2.416298507923353711e-01 4.305724279959069478e-02 -5.402625983964853829e-02
-2.399776166915698616e-01 5.074640316729628342e-02 -5.951351547707393885e-02
-2.381473430578981143e-01 5.852881172515467245e-02 -6.486951361594216203e-02
-2.354536381780374943e-01 6.676073396728421372e-02 -6.959074474882451233e-02
-2.326464779027283547e-01 7.505423846999875748e-02 -7.423144339980737583e-02
-2.291904881895433510e-01 8.369041864860707336e-02 -7.839993873357110898e-02
-2.239765317644266118e-01 9.325310993404681281e-02 -8.128721479802447636e-02
-2.239841787537519835e-01 1.000812944464371523e-01 -8.799890103409002684e-02
-2.202994513358760009e-01 1.088486979283102840e-01 -9.201196331281302765e-02
-2.160490443712827502e-01 1.179253444144533480e-01 -9.562097581571871174e-02
-1.646713811608200850e-01 -1.847876545183773644e-01 2.841128739494604427e-01
-1.728551978704855885e-01 -1.813446891055795762e-01 2.704953722136337890e-01
-1.816376025746913314e-01 -1.782084389510877609e-01 2.564312506942606484e-01
-1.831596408818355892e-01 -1.717639018647420524e-01 2.481977185977477518e-01
-1.881444991618483886e-01 -1.669294493459566042e-01 2.372139458936272649e-01
-1.922112980279715722e-01 -1.616915155394811898e-01 2.269810350982494618e-01
-1.974290045687114858e-01 -1.570064185836737847e-01 2.158545011337938968e-01
-2.002768167888123729e-01 -1.512403170715098388e-01 2.066262897423079004e-01
-2.101266121710864965e-01 -1.487653543302516757e-01 1.918778167008173829e-01
-2.126520978595098088e-01 -1.428857033738406002e-01 1.829432773001741230e-01
-2.163373758608159170e-01 -1.375684887001407120e-01 1.731095941803418303e-01
-2.268665572350076487e-01 -1.355034288378476615e-01 1.579137595288756524e-01
-2.320632756386381002e-01 -1.309493822443168753e-01 1.469394362973702184e-01
-2.379888910137980540e-01 -1.267620363713581055e-01 1.354170226381364861e-01
-2.389162222042093831e-01 -1.202135650286775687e-01 1.278225391557998858e-01
-2.423214677403778550e-01 -1.148596446893496437e-01 1.183053382106158957e-01
-2.431615600500752761e-01 -1.082892955460013351e-01 1.107993125802806955e-01
-2.445331442103881592e-01 -1.019829149060104134e-01 1.028896483085149638e-01
-2.456098306645095875e-01 -9.554466386520207855e-02 9.521773084743120896e-02
-2.486195114955949415e-01 -9.005370233913551070e-02 8.605823255613520573e-02
-2.495162394469064293e-01 -8.354751935070700575e-02 7.854633507278063753e-02
-2.509070982581644293e-01 -7.729238089808414258e-02 7.066141145504450938e-02
-2.519752658654050292e-01 -7.088830328106249246e-02 6.303435746303270859e-02
-2.532598621947543260e-01 -6.459912245451376878e-02 5.525037169101054690e-02
-2.536067824724551611e-01 -5.785789869910321764e-02 4.819322146773000193e-02
-2.541048622421330783e-01 -5.119688376131164426e-02 4.102775251531362577e-02
-2.537008011560855092e-01 -4.409707421579445175e-02 3.455641524967167921e-02
-2.553107370040324509e-01 -3.800229575141390870e-02 2.655740210299295523e-02
-2.551704920901496365e-01 -3.104494313477374617e-02 1.989651994315394523e-02
-2.545012662130713421e-01 -2.382631970447769698e-02 1.364347974544688480e-02
-2.535527407676330114e-01 -1.647288023019479603e-02 7.605146535788115392e-03
-2.537524053116468892e-01 -9.698259699785646837e-03 7.012589530618895672e-04
-2.527210719618641632e-01 -2.308707007682382628e-03 -5.269635009224754585e-03
-2.509251917029949319e-01 5.465489967848874420e-03 -1.066185695303456527e-02
-2.490919493344089242e-01 1.326099404661108816e-02 -1.602700694363512479e-02
-2.470627856528430089e-01 2.115687414997516336e-02 -2.124489949899235897e-02
-2.451363669337131013e-01 2.900044707121333942e-02 -2.653989534105527515e-02
-2.430029744817783777e-01 3.695099054931556826e-02 -3.168349025865335733e-02
-2.419646981491595794e-01 4.433738864964660575e-02 -3.764110949085314184e-02
-2.401593629009870778e-01 5.211951185878638260e-02 -4.302780057911796685e-02
-2.388128516810616442e-01 5.966283150549492320e-02 -4.875410995120180169e-02
-2.369514738278372112e-01 6.747272380164158478e-02 -5.409842283273229302e-02
-2.327473329396118062e-01 7.650554289319938528e-02 -5.771413284133297683e-02
-2.296573317718964280e-01 8.496205203372800274e-02 -6.215634715824731871e-02
-2.254028346986985953e-01 9.403552678459453640e-02 -6.574859590439219303e-02
-2.208930629857424055e-01 1.032475616217768677e-01 -6.915964656626388818e-02
-2.198444182069234087e-01 1.106459153467639067e-01 -7.511455089729777990e-02
-2.157914152441968714e-01 1.196282127513715599e-01 -7.887155574034189487e-02
-1.655391005780111058e-01 -1.841661213457363999e-01 3.011405897262762199e-01
-1.750728649418213101e-01 -1.813304051039499598e-01 2.863849426821156174e-01
-1.806483729869102772e-01 -1.767165770642340483e-01 2.748472667642941070e-01
-1.885782941945357560e-01 -1.732081607371222520e-01 2.614435114750366385e-01
-1.893309012449146400e-01 -1.664163494960135270e-01 2.538188836859635034e-01
-1.975688516611486534e-01 -1.631019176338652787e-01 2.402196312071426254e-01
-2.011584935857350098e-01 -1.576579534133799032e-01 2.303586334242856415e-01
-2.065882750761235953e-01 -1.530892253239739265e-01 2.190500591142585662e-01
-2.087024195996056430e-01 -1.469901053259448087e-01 2.103987521568404517e-01
-2.170771196812055770e-01 -1.438483883317690226e-01 1.967943145866269949e-01
-2.193299090353851011e-01 -1.378502135571531007e-01 1.880690028456553642e-01
-2.219084730701312014e-01 -1.320187687095600304e-01 1.790970956019103388e-01
-2.234279560428919509e-01 -1.256978157621941317e-01 1.709738689986022853e-01
-2.339634996728685579e-01 -1.236854187326828225e-01 1.557671993555864720e-01
-2.357603643631328849e-01 -1.175329812075154301e-01 1.474615687972424816e-01
-2.363480155789178527e-01 -1.108111682620444016e-01 1.401143352802294850e-01
-2.389364219608326456e-01 -1.050611096345591966e-01 1.312092162052059252e-01
-2.396027932104512481e-01 -9.839534791354276333e-02 1.238183883052627610e-01
-2.402895582466106905e-01 -9.174779485235604048e-02 1.164193043431752672e-01
-2.436286266909857279e-01 -8.639707282752168149e-02 1.069656032636898957e-01
-2.477873723116489346e-01 -8.146311791775377731e-02 9.689157655845540007e-02
-2.492989521596176705e-01 -7.525080572843548254e-02 8.888623643708079558e-02
-2.504972957928729982e-01 -6.889748060832714960e-02 8.113323508588504707e-02
-2.507233405164077666e-01 -6.207451049358981426e-02 7.413904854593575400e-02
-2.508859429236066640e-01 -5.522491118809399330e-02 6.719910696561740004e-02
-2.521927406249036552e-01 -4.894907694415781552e-02 5.938660204258480735e-02
-2.524800803306462837e-01 -4.217704491494964070e-02 5.236622903358181813e-02
-2.521270389557648817e-01 -3.509122594135793971e-02 4.584056636596134382e-02
-2.534779349518688218e-01 -2.886222399178741543e-02 3.801998687634552954e-02
-2.538348828080028152e-01 -2.214401954290814989e-02 3.096437659976897239e-02
-2.531796576382328023e-01 -1.492378217078848407e-02 2.468690921310570663e-02
-2.521620955124876384e-01 -7.523225053420873332e-03 1.868734351942724636e-02
-2.521417933674877654e-01 -6.306685457487803959e-04 1.193478672425354881e-02
-2.513951051383796487e-01 6.625890992793287415e-03 5.734523677508623907e-03
-2.504732313696441670e-01 1.396729844230480688e-02 -3.274522901647036743e-04
-2.490011841359121847e-01 2.158751951462847818e-02 -5.974023916723886218e-03
-2.472310409778023521e-01 2.936209699211439483e-02 -1.139624512676801205e-02
-2.457031795032433574e-01 3.700907980368302319e-02 -1.699973455799871913e-02
-2.435501919800300008e-01 4.497849779228750566e-02 -2.213437973029167005e-02
-2.420133322446161583e-01 5.263139214194091642e-02 -2.773093032878791442e-02
-2.402240518627234422e-01 6.041444629872637362e-02 -3.313925326249701764e-02
-2.376215805589301788e-01 6.861943685787422198e-02 -3.794193327773333346e-02
-2.344763343823790258e-01 7.711276407176118064e-02 -4.234461625859431422e-02
-2.325640299931456267e-01 8.496163882878177143e-02 -4.766545757223598911e-02
-2.295856561880383617e-01 9.337300762649902719e-02 -5.219737683364876479e-02
-2.257440783819185115e-01 1.022412658964049481e-01 -5.609736565432082989e-02
-2.214138277717094261e-01 1.113744626221796208e-01 -5.964394927348622144e-02
-1.675251727038708227e-01 -1.840515111330910669e-01 3.173176491684513989e-01
-1.716539425828670640e-01 -1.787360255915303731e-01 3.068826322783870242e-01
-1.834499184482318024e-01 -1.769611468174213664e-01 2.902724754594136480e-01
-1.889702813739200793e-01 -1.723358076294711216e-01 2.787647203666033247e-01
-1.931997863083859679e-01 -1.671397036728755614e-01 2.683192976107757755e-01
-1.971677802794088996e-01 -1.618409033956906273e-01 2.581034357403992341e-01
-2.051063667134491453e-01 -1.584081442382908878e-01 2.447217803431632199e-01
-2.093978744083224430e-01 -1.533040706768582506e-01 2.342887997432130387e-01
-2.134830002879077870e-01 -1.481210404907959410e-01 2.240401858676005498e-01
-2.159143597502109491e-01 -1.421802158535961091e-01 2.151282757735488715e-01
-2.220537736326034517e-01 -1.380023945185036294e-01 2.032787353663322860e-01
-2.243273952924318970e-01 -1.320199053756081486e-01 1.945242210966227070e-01
-2.260787721741563394e-01 -1.258016706101920401e-01 1.861965461756700524e-01
-2.360922436431888149e-01 -1.235325389993455480e-01 1.713468159848131611e-01
-2.381478822833452691e-01 -1.174958590286617477e-01 1.628137983394039034e-01
-2.392640384054916802e-01 -1.110203813420116564e-01 1.550314198854443326e-01
-2.398927998527836114e-01 -1.043193843106912239e-01 1.476410649524906304e-01
-2.417447970483421749e-01 -9.821583588851975910e-02 1.393008618945567600e-01
