ply
format ascii 1.0
comment PYTHON generated
element vertex 615
property float x
property float y
property float z
end_header
5.802583390260598883e-02 -2.670202536275048666e-03 -5.102951332653392624e-01
6.729419946384859741e-02 8.729057220363510561e-03 -5.111102456509926117e-01
-9.708648015668540354e-02 -2.380835319693720697e-01 -4.392481699302223097e-01
-1.023025355054664465e-01 -2.337109972103207645e-01 -4.488247591570133643e-01
-1.050814786953852553e-01 -2.282462178413851572e-01 -4.568390840230075467e-01
-1.060281403264450029e-01 -2.219548528434827084e-01 -4.636852652090441840e-01
-1.046124793440689760e-01 -2.145824148610311621e-01 -4.690367895106110074e-01
-1.023396126343447676e-01 -2.068160721742580144e-01 -4.738466496433211272e-01
-9.822011887606013625e-02 -1.981919092565107010e-01 -4.774991122985802194e-01
-9.656376565234048304e-02 -1.907056756739110570e-01 -4.827029654886562104e-01
-9.176099941113341485e-02 -1.817522629683084034e-01 -4.859416238999882953e-01
-8.689752053765369133e-02 -1.727601781861615449e-01 -4.891485165383312461e-01
-8.154038427981311066e-02 -1.635277184055499988e-01 -4.920601790310994428e-01
-7.773128913370651316e-02 -1.550137135790631282e-01 -4.959406128216019560e-01
-6.783835862800080552e-02 -1.436203185723187725e-01 -4.960618789934455597e-01
-6.111167694291991248e-02 -1.337021869486940684e-01 -4.981615307515769864e-01
-5.498182927379599572e-02 -1.240523980902173418e-01 -5.006434140433261293e-01
-4.628551552614493247e-02 -1.131651337047668571e-01 -5.015594265661689199e-01
-3.837565089301239740e-02 -1.026350868738548361e-01 -5.029762447209816800e-01
-2.981973962082271057e-02 -9.177618217347952023e-02 -5.040155519571232201e-01
-2.335477343229078184e-02 -8.190133725589307523e-02 -5.063500471641718681e-01
-1.393648620621976142e-02 -7.058905353121715243e-02 -5.069005622267470645e-01
-4.614932233424989816e-03 -5.930141450528257641e-02 -5.075269430372086887e-01
4.924252101942555582e-03 -4.788320706304491359e-02 -5.080462838059622843e-01
1.182822582577897075e-02 -3.772540144954537877e-02 -5.101808518529485914e-01
2.819558761665227897e-02 -2.293425844011196674e-02 -5.066124278932649938e-01
3.782206901120577225e-02 -1.139807524703783520e-02 -5.071467683114865288e-01
4.498299807324737665e-02 -1.050883265068323913e-03 -5.091866804118130307e-01
5.498204067236614478e-02 1.071175578241876508e-02 -5.095380462889423923e-01
6.530957553574415209e-02 2.265983467004668156e-02 -5.097165457101188180e-01
7.547172843772911865e-02 3.455197052243994676e-02 -5.100167019520526202e-01
-1.085143218890855243e-01 -2.356657945595280745e-01 -4.375735327702974242e-01
-1.150169156376772972e-01 -2.319027660747751407e-01 -4.479739596373296662e-01
-1.190068714583864817e-01 -2.270108558218800199e-01 -4.567566091682662144e-01
-1.209190843227024303e-01 -2.211786143313952402e-01 -4.642087894693422978e-01
-1.218174524310851048e-01 -2.148884929131272270e-01 -4.710109827578884412e-01
-1.218512082437456234e-01 -2.082054842496806057e-01 -4.772596382764227041e-01
-1.202321074076307117e-01 -2.007596178154091582e-01 -4.824617414965498563e-01
-1.114713207283236085e-01 -1.899846017817778121e-01 -4.831820347408301020e-01
-1.070761479311149733e-01 -1.812302061335009928e-01 -4.866548674489292736e-01
-1.023884947177045868e-01 -1.723293804877656377e-01 -4.899551887916527848e-01
-9.793834163446704655e-02 -1.635319222443338827e-01 -4.934116481261728859e-01
-9.015077368771223787e-02 -1.531499209248533000e-01 -4.947985536912180571e-01
-8.020163518604314645e-02 -1.417257386475222758e-01 -4.948586797740411880e-01
-7.439263117999622699e-02 -1.322436472650491135e-01 -4.975101005312283498e-01
-6.736213552779771185e-02 -1.221664326559084857e-01 -4.994157231507344585e-01
-5.851703447990769247e-02 -1.112076006883223472e-01 -5.002172064707905985e-01
-5.028795272723809995e-02 -1.005221721152680381e-01 -5.014162327386020301e-01
-4.214345234257496631e-02 -8.985798435442649001e-02 -5.026869645263869479e-01
-3.527620420331670226e-02 -7.979134873729495925e-02 -5.047572197978384967e-01
-2.589143403208299388e-02 -6.848901764428827477e-02 -5.053034715912809727e-01
-1.711198865163712779e-02 -5.745905124184103735e-02 -5.062402941751737995e-01
-8.798896423617724727e-03 -4.663547979749910199e-02 -5.074796242020326309e-01
-5.931294699837441620e-05 -3.558271456225974017e-02 -5.084801648273530317e-01
8.754123428733190382e-03 -2.447446194466385699e-02 -5.094518792325490875e-01
2.475760125566037195e-02 -9.812303176563862139e-03 -5.060994154186611027e-01
3.170786271575201654e-02 4.321011130563809366e-04 -5.082466195527025610e-01
4.217553641922591745e-02 1.242918445275107558e-02 -5.082901527582918133e-01
5.312170638744878604e-02 2.468910385756440534e-02 -5.080707631773226929e-01
6.352109578424111613e-02 3.670525187925257476e-02 -5.082031099251711481e-01
-1.119396571778021737e-01 -2.363481064000726994e-01 -4.245285111749811380e-01
-1.173942739084344322e-01 -2.321011597345853383e-01 -4.342910364943249890e-01
-1.226940468490156921e-01 -2.278029908167440720e-01 -4.439374478664203094e-01
-1.278910768405834286e-01 -2.234788698860415146e-01 -4.534954441127433400e-01
-1.301179545095373091e-01 -2.178030680061353030e-01 -4.611500549935441118e-01
-1.312428760856854393e-01 -2.116273293998376659e-01 -4.680964193963320641e-01
-1.314353435149588079e-01 -2.050267467636916474e-01 -4.744427636334401788e-01
-1.305532535560261775e-01 -1.979296121232182459e-01 -4.801073550850293303e-01
-1.287460555103901172e-01 -1.904019260379329614e-01 -4.851859361247533586e-01
-1.247254647705184072e-01 -1.818347098716025234e-01 -4.888769902858253191e-01
-1.211028558244493514e-01 -1.734482881596146331e-01 -4.928219177954678010e-01
-1.165125877404114274e-01 -1.645973541269195872e-01 -4.961657787260549402e-01
-1.096251864155583788e-01 -1.546497054786746816e-01 -4.980856230777641613e-01
-1.038313714250839459e-01 -1.452073515430498396e-01 -5.007011023453332710e-01
-9.809489543110594401e-02 -1.357791716186646236e-01 -5.033632227241777723e-01
-8.069461430436608573e-02 -1.207611721365652868e-01 -4.988008046865588518e-01
-7.222140887081798799e-02 -1.099772065093707618e-01 -4.998087602269665197e-01
-6.387332377671622874e-02 -9.923468172226551642e-02 -5.009119754269771851e-01
-5.492091104634191923e-02 -8.818016644339933541e-02 -5.016612649400792323e-01
-4.898221661515608782e-02 -7.856467963885184480e-02 -5.042838529099116229e-01
-4.000021022352800992e-02 -6.745672563887614159e-02 -5.050517607143689691e-01
-3.140347904144549784e-02 -5.651476654125218990e-02 -5.060750676825320760e-01
-2.272213994761709821e-02 -4.551159140147950644e-02 -5.070647124259264338e-01
-1.457564638124167478e-02 -3.474979163521460523e-02 -5.084012264013609839e-01
-5.453097374731125102e-03 -2.348886230453533369e-02 -5.091621055307924415e-01
1.145959343243188600e-02 -8.364223304817244853e-03 -5.052183494597243252e-01
1.775918395297507169e-02 1.556281681308648024e-03 -5.077396234445153977e-01
2.833333593823000873e-02 1.360973155052364741e-02 -5.076922282251484786e-01
3.921372381371632243e-02 2.584251234429228022e-02 -5.074830833889785175e-01
4.996056108312693644e-02 3.803452032838001290e-02 -5.073796736219043924e-01
5.498345540947427446e-02 4.739109211982418107e-02 -5.107363626868404172e-01
-1.090941738197461347e-01 -2.341681829050278330e-01 -4.074129052240557103e-01
-1.194921233348351930e-01 -2.321695014655028588e-01 -4.203921991150918469e-01
-1.248179824548777406e-01 -2.278772606616125407e-01 -4.300860116154064938e-01
-1.307153494743052147e-01 -2.238684287046451560e-01 -4.401249278317457270e-01
-1.353076332133666126e-01 -2.192788674116480374e-01 -4.493090350562234381e-01
-1.384634854433641482e-01 -2.140425974679340815e-01 -4.575614366736442395e-01
-1.407981791107558167e-01 -2.084383706720312757e-01 -4.652782308019012270e-01
-1.418246932114979875e-01 -2.022346143075249569e-01 -4.721522482550579713e-01
-1.412811986533615005e-01 -1.953034012526850827e-01 -4.780268683272668184e-01
-1.399132929132468617e-01 -1.879891131919919356e-01 -4.833764839432780347e-01
-1.362763045130132855e-01 -1.796067421521122809e-01 -4.872962505128818345e-01
-1.325784471474181492e-01 -1.711893811145976385e-01 -4.911828220257016264e-01
-1.279540596309657607e-01 -1.623260414591651268e-01 -4.944918966451621323e-01
-1.216627826422152503e-01 -1.526612452730817526e-01 -4.967680237363129025e-01
-1.158968367078314354e-01 -1.432334531063599314e-01 -4.993840789943334579e-01
-1.054939283848512210e-01 -1.315733622581994056e-01 -4.991189494210724886e-01
-9.916202537271970319e-02 -1.218437008584835612e-01 -5.014117018204583553e-01
-9.057235818503521496e-02 -1.110100435843496131e-01 -5.023175000193521589e-01
-8.274666689655035823e-02 -1.005264870722559489e-01 -5.037136938799308128e-01
-7.377892299934832310e-02 -8.947177233923073181e-02 -5.044204182694580485e-01
-6.822972093935593396e-02 -8.005528134718040145e-02 -5.072583347775986296e-01
-5.987210630581854542e-02 -6.925981932264041463e-02 -5.083759859851044727e-01
-5.216825619366813327e-02 -5.876261026703553936e-02 -5.099160858334567115e-01
-3.664343413673051830e-02 -4.441356536633597751e-02 -5.066816571729025886e-01
-2.825917456807811035e-02 -3.353410971168371835e-02 -5.078482099555258200e-01
-1.911912598182496925e-02 -2.226290215773588793e-02 -5.085735926500263293e-01
-2.129535487785244596e-03 -7.086769466318199040e-03 -5.045416669353127714e-01
4.912450273320295713e-03 3.198502943362636908e-03 -5.065936204459381420e-01
1.454087399884471110e-02 1.478728093506285340e-02 -5.070921617580982366e-01
2.507580177453630488e-02 2.685292063758932396e-02 -5.070637334107834793e-01
3.596884944020459218e-02 3.912215362725059847e-02 -5.068451497563254415e-01
4.333937920082603368e-02 4.965059305337789913e-02 -5.087701178479774322e-01
-1.116375173648870428e-01 -2.344439992192572375e-01 -3.937188768617452261e-01
-1.205675643603636854e-01 -2.317671320712492711e-01 -4.057981375849626371e-01
-1.306045799898681581e-01 -2.296311347649547252e-01 -4.185615490605365530e-01
-1.349529427075089605e-01 -2.249081883809483373e-01 -4.276309560181440483e-01
-1.402371332078013177e-01 -2.206345840920950763e-01 -4.372855078031453457e-01
-1.432356592164325260e-01 -2.153221540011697743e-01 -4.454562111478004294e-01
-1.442831524827490053e-01 -2.091139879535883483e-01 -4.523679544649479300e-01
-1.472780187331636792e-01 -2.038243991851124703e-01 -4.605126312850932324e-01
-1.508514262769570236e-01 -1.988198760064149584e-01 -4.690135630074873108e-01
-1.520156966680326072e-01 -1.926984840150874623e-01 -4.759699111268809180e-01
-1.491992781669541357e-01 -1.847079594360499788e-01 -4.803950640861526233e-01
-1.465104257677312116e-01 -1.767746522989427638e-01 -4.849055649948590396e-01
-1.433246042087950867e-01 -1.686033853374525604e-01 -4.891033693901877255e-01
-1.408718550671093084e-01 -1.607757703759126466e-01 -4.937706840674223052e-01
-1.337051012309887488e-01 -1.506943877198659021e-01 -4.954760434666980462e-01
-1.283144837027029306e-01 -1.414484266310938876e-01 -4.983117650075533644e-01
-1.186327608992922000e-01 -1.301301624129305168e-01 -4.984701084325678933e-01
-1.118708393741387197e-01 -1.201949378030544718e-01 -5.004771063780470985e-01
-1.034626458452707343e-01 -1.094479305280979808e-01 -5.014714940217378514e-01
-9.556757097729744188e-02 -9.892983343015458730e-02 -5.028037857570449853e-01
-8.701064795194908552e-02 -8.807150196175000945e-02 -5.037419191521484985e-01
-8.063143350530650733e-02 -7.825489245717845432e-02 -5.060487058302514107e-01
-7.114767643586877854e-02 -6.690490930818915327e-02 -5.064502286487251315e-01
-6.287493199722149484e-02 -5.612779527524035944e-02 -5.076200761321413291e-01
-5.480773531702540224e-02 -4.542949850740100881e-02 -5.089344121610124283e-01
-4.632582609911872762e-02 -3.450808603719091039e-02 -5.100133966013279396e-01
-3.687049885325996423e-02 -2.308657653494863848e-02 -5.105139653583826709e-01
-2.753942458168204266e-02 -1.170247636515185652e-02 -5.111126212504982780e-01
-1.303551105017383693e-02 2.279473675666589261e-03 -5.085799487813693620e-01
-3.601267567722526985e-03 1.376680211619860789e-02 -5.091655537231905004e-01
5.417483063793387954e-03 2.507164853247246389e-02 -5.100238622259745114e-01
2.242758124459731661e-02 4.040905810180165508e-02 -5.060673653399621053e-01
3.116993303216700206e-02 5.162899542147843940e-02 -5.071447919149725259e-01
3.858439923930004345e-02 6.219766160359026935e-02 -5.090387133936269404e-01
-1.001287228347207958e-01 -2.283016542663810211e-01 -3.708379490197377115e-01
-1.193927604898790684e-01 -2.303316797896186041e-01 -3.896950724556957901e-01
-1.263617797932971298e-01 -2.267743422208885473e-01 -4.005208104573877437e-01
-1.398254040097210160e-01 -2.262382475761817169e-01 -4.155246121871889464e-01
-1.419503314047915743e-01 -2.204999793214577897e-01 -4.231671939488176326e-01
-1.469184134337347680e-01 -2.160939128391915209e-01 -4.326309555642485760e-01
-1.499107014279464078e-01 -2.107877582105871783e-01 -4.408064826224207255e-01
-1.540962741545248149e-01 -2.060517772511967771e-01 -4.497322110020077757e-01
-1.568082601615433669e-01 -2.006425717415982746e-01 -4.577013436275126912e-01
-1.593646913464348280e-01 -1.951744303930930124e-01 -4.655586190650227163e-01
-1.608041112689643226e-01 -1.891896274132023603e-01 -4.726924454328496061e-01
-1.587042778262588716e-01 -1.815414166929339157e-01 -4.775668802699728488e-01
-1.558688303790077834e-01 -1.735421494056040570e-01 -4.819781510989035178e-01
-1.524383542795012536e-01 -1.652564783873149423e-01 -4.860129386215312763e-01
-1.495916576288314204e-01 -1.572447767305509836e-01 -4.904229233362064067e-01
-1.445781032369760910e-01 -1.481887097350166604e-01 -4.934726562089812862e-01
-1.404976181991856310e-01 -1.395735723906132708e-01 -4.971145870517277299e-01
-1.355392948991134550e-01 -1.305262905930291151e-01 -5.002158935717617716e-01
-1.243831987695152297e-01 -1.184738323989961845e-01 -4.994454112272733726e-01
-1.167126428024085893e-01 -1.080830518857675143e-01 -5.008777986841783658e-01
-1.086493180054407814e-01 -9.748262874357399577e-02 -5.020830928240866964e-01
-9.989436109229152261e-02 -8.652749986283493622e-02 -5.028755104888060767e-01
-9.428182181745548007e-02 -7.708693689207207767e-02 -5.056375702852469178e-01
-8.479981095573929650e-02 -6.573642610501781447e-02 -5.060167719302661737e-01
-7.598107908849756342e-02 -5.468853964104524595e-02 -5.068253632813031206e-01
-6.733649730697308100e-02 -4.370631597045022965e-02 -5.077611076884051000e-01
-5.945536191717751273e-02 -3.308054934280250242e-02 -5.091850960584651808e-01
-5.023134493336997575e-02 -2.176925334484954011e-02 -5.098054563339813328e-01
-4.109373987278794327e-02 -1.047888913966766450e-02 -5.104954326150108468e-01
-2.718775739330650532e-02 3.216046121233905042e-03 -5.082945855592095885e-01
-1.797617706498558232e-02 1.459350090397931038e-02 -5.089902134788637511e-01
-8.730415443826328170e-03 2.601027454884845963e-02 -5.096833967934806253e-01
1.120505862086479398e-03 3.775613218367194351e-02 -5.100311834857620408e-01
8.378330336190870087e-03 4.821637657518944992e-02 -5.119730167012304101e-01
1.677060920086409501e-02 5.926554071624016290e-02 -5.132443849197132479e-01
2.539669312080977681e-02 7.045397557259386323e-02 -5.143913432600237812e-01
-1.097614461071876463e-01 -2.250180999370674506e-01 -3.680081029544681748e-01
-1.255936163019256702e-01 -2.255114335867502429e-01 -3.846647209947807733e-01
-1.330050113675368406e-01 -2.221726616449722636e-01 -3.957963330319670403e-01
-1.468537566971545028e-01 -2.218411772346011168e-01 -4.110795993449810615e-01
-1.500017796858784946e-01 -2.165858050287977898e-01 -4.193907806865985188e-01
-1.535484601837968366e-01 -2.115320028544394326e-01 -4.279458770284179092e-01
-1.571782307044205518e-01 -2.065323615838527971e-01 -4.365395836770570304e-01
-1.629081604775145520e-01 -2.025326349241752255e-01 -4.464715948283756175e-01
-1.654185005171065759e-01 -1.970405306502982790e-01 -4.543137208222954859e-01
-1.675945819817324378e-01 -1.914026623290069062e-01 -4.619316808183072665e-01
-1.693567843093500003e-01 -1.855809950871044889e-01 -4.692755546077604922e-01
-1.677245697501344723e-01 -1.781582885769562585e-01 -4.744425540855474743e-01
-1.656354913200626944e-01 -1.705158065164799341e-01 -4.793218249273150100e-01
-1.621789528803897484e-01 -1.622197360470429006e-01 -4.833315791333775424e-01
-1.595632776648879259e-01 -1.543211407151900694e-01 -4.878808646105773361e-01
-1.558452227991646011e-01 -1.458897789662046141e-01 -4.917368566783832939e-01
-1.515411595634869324e-01 -1.371696791307639995e-01 -4.952268563954457248e-01
-1.471257402353380039e-01 -1.283880021618436784e-01 -4.986545795886523358e-01
-1.368287775654164762e-01 -1.167429909015280654e-01 -4.983970317815867856e-01
-1.291484059364345072e-01 -1.063466125386186845e-01 -4.998029533831911397e-01
-1.214339135228162947e-01 -9.591560526940559606e-02 -5.012042942270984458e-01
-1.125416706708234627e-01 -8.488928906232658111e-02 -5.018884635235377756e-01
-1.072646318627226703e-01 -7.561807072819026754e-02 -5.048423787039306720e-01
-9.756732821404998091e-02 -6.415702084524718685e-02 -5.050620291264250605e-01
-8.860098907791386091e-02 -5.303423414896444449e-02 -5.057561223668088912e-01
-7.930117168003640582e-02 -4.172504972715530142e-02 -5.062634015816916966e-01
-7.175854734354050746e-02 -3.126498606651813977e-02 -5.078771869133777983e-01
-6.315579051485550877e-02 -2.026044380197678657e-02 -5.088536213195886670e-01
-5.471642875925455951e-02 -9.315835671020802899e-03 -5.099523727772210524e-01
-4.087967264165706660e-02 4.353586894630008530e-03 -5.077582983061640354e-01
-3.215016398880413129e-02 1.549126555332947658e-02 -5.087226438778916782e-01
-2.287695463223252124e-02 2.692470452943545450e-02 -5.093748034301356364e-01
-1.325945149308369042e-02 3.855495984668020487e-02 -5.098374491048942581e-01
-4.974013074889344077e-03 4.953232769279796582e-02 -5.111312285756418605e-01
3.067108660430445388e-03 6.040567927066794324e-02 -5.125930040932745735e-01
1.196204358920824329e-02 7.173228864495934110e-02 -5.135555243189748875e-01
2.105126830007342242e-02 8.317831813541165520e-02 -5.144185869977953018e-01
-9.923297662457115920e-02 -2.192855523717802124e-01 -3.456143246239274935e-01
-1.192757330991153358e-01 -2.216929643753210999e-01 -3.651157938125427771e-01
-1.312711279479145676e-01 -2.204501922661697144e-01 -3.792937811363320533e-01
-1.405641377441817497e-01 -2.179983876552555877e-01 -3.916704497433702858e-01
-1.533569346633112396e-01 -2.172034207947500795e-01 -4.062960876196992643e-01
-1.570812585469061329e-01 -2.122269361071476013e-01 -4.149893949274078286e-01
-1.602259229662026940e-01 -2.069956317193281659e-01 -4.232940745346454037e-01
-1.649450777259070522e-01 -2.025168501345047944e-01 -4.326021096518768427e-01
-1.710621874860960012e-01 -1.987138419132799261e-01 -4.427941227805457514e-01
-1.730428848370086925e-01 -1.929823280281917630e-01 -4.503026202431086311e-01
-1.749082889877405511e-01 -1.872063804993423786e-01 -4.577256576788305553e-01
-1.763997024490295551e-01 -1.812638104470256362e-01 -4.649002836542166506e-01
-1.757376519461714692e-01 -1.743038595316790673e-01 -4.706865074016597372e-01
-1.748872268842991129e-01 -1.672563911325877783e-01 -4.763520519902243455e-01
-1.723446330276302008e-01 -1.594008796407181683e-01 -4.809365565994613290e-01
-1.692061431535402949e-01 -1.512549329102455264e-01 -4.851474053778535023e-01
-1.671286265930654602e-01 -1.436175210613847286e-01 -4.900308209014672123e-01
-1.628392568299533438e-01 -1.349082296795840186e-01 -4.935186345727299306e-01
-1.585284728664616283e-01 -1.261791089434702862e-01 -4.970003416711596955e-01
-1.488799522149714949e-01 -1.148432282617192768e-01 -4.971260685561477155e-01
-1.414375510676525727e-01 -1.045613943479525298e-01 -4.986622104475060269e-01
-1.341507047424612964e-01 -9.433849627309268127e-02 -5.003102095268596727e-01
-1.253896652634667319e-01 -8.337325080625715423e-02 -5.010531799321598090e-01
-1.192461093820953444e-01 -7.367842169084164172e-02 -5.034489545288972634e-01
-1.092739450288520153e-01 -6.207788997584014895e-02 -5.034716174588949045e-01
-1.006071916885032808e-01 -5.109928932233877286e-02 -5.043305708756796735e-01
-9.130927683143666429e-02 -3.978589518355541560e-02 -5.048169582009035539e-01
-8.330958326018254867e-02 -2.909645744232646630e-02 -5.061270555428956097e-01
-7.519469096141197240e-02 -1.833199073904034221e-02 -5.073854638479307066e-01
-6.756406123809792497e-02 -7.790684308146639259e-03 -5.089580944814795505e-01
-5.911194386742837925e-02 3.182003983972482575e-03 -5.100438416843687817e-01
-4.461999757533019473e-02 1.722226322830609085e-02 -5.074405429410980828e-01
-3.611563180347951429e-02 2.826957690149369679e-02 -5.085409069230351076e-01
-2.697939348283487360e-02 3.965939764651637417e-02 -5.092729615726652170e-01
-1.851532329739363769e-02 5.072749439867425131e-02 -5.104356298583012652e-01
-9.608682995541434346e-03 6.204185927545825124e-02 -5.113457043423915716e-01
-8.360874905495307985e-04 7.330874563291961410e-02 -5.123579640051886264e-01
8.132472018659520074e-03 8.469842516600939453e-02 -5.132742849193608903e-01
-1.123469358459411455e-01 -2.175860096273696531e-01 -3.450675984333141932e-01
-1.345584291799954424e-01 -2.210412452453539844e-01 -3.660276658294098762e-01
-1.489498721822218597e-01 -2.209467405052672473e-01 -3.817932010822451261e-01
-1.515457174065226176e-01 -2.154179286563677742e-01 -3.897926856283090991e-01
-1.559275751087358108e-01 -2.107348261802439171e-01 -3.989468620185930847e-01
-1.615454487669649164e-01 -2.066477048331229749e-01 -4.088900929929313310e-01
-1.664385252937059245e-01 -2.022421688181189059e-01 -4.183426542576317297e-01
-1.715334545039971514e-01 -1.979513533812234383e-01 -4.279079759541624117e-01
-1.746504932522340570e-01 -1.927464703313479522e-01 -4.361733294068796951e-01
-1.757684441793291585e-01 -1.866086981910902443e-01 -4.431319011740867397e-01
-1.778146838269079044e-01 -1.809204963468412364e-01 -4.506846826953913032e-01
-1.787084312237584849e-01 -1.746924900311830342e-01 -4.574856062017322866e-01
-1.806225171378976202e-01 -1.689611906039896194e-01 -4.649319768772101069e-01
-1.817871996089987785e-01 -1.628812189567556690e-01 -4.718900381505235497e-01
-1.819846327854185708e-01 -1.563432220798333105e-01 -4.782232512953985548e-01
-1.807198343957528708e-01 -1.491052490504889416e-01 -4.836182595677931406e-01
-1.776549553879665233e-01 -1.409960298790924049e-01 -4.878664791769495856e-01
-1.743709899889910042e-01 -1.327761003924025629e-01 -4.919802651203591948e-01
-1.703028498384658584e-01 -1.241698461486352711e-01 -4.956032815104997047e-01
-1.593696681364592249e-01 -1.122024975292423565e-01 -4.948921166073633193e-01
-1.527197876598212212e-01 -1.023061017235211284e-01 -4.969092718024886723e-01
-1.461853567164539125e-01 -9.245045748265198760e-02 -4.990133163082510759e-01
-1.386363549187273059e-01 -8.208065384415813570e-02 -5.004930076334022093e-01
-1.306757116780556949e-01 -7.148878278949757914e-02 -5.017331527950109615e-01
-1.214503261852797333e-01 -6.025152339236845150e-02 -5.022000341884627073e-01
-1.125084952990687975e-01 -4.913243302989771244e-02 -5.028627069816150597e-01
-1.042755893926591709e-01 -3.834650481541143630e-02 -5.039879988846430736e-01
-9.539184249948413907e-02 -2.721401677661757640e-02 -5.047289631723621550e-01
-8.590709122277881415e-02 -1.575853241862814474e-02 -5.051168019184374414e-01
-7.767970959426742650e-02 -4.914168588134773530e-03 -5.063019379740600900e-01
-6.933728557132889936e-02 6.008906283324823294e-03 -5.074368142765213197e-01
-5.490331643769583159e-02 2.003608720184171105e-02 -5.048390020037392123e-01
-4.596224674169460678e-02 3.131104697641214768e-02 -5.056510205022528570e-01
-3.699651022594133143e-02 4.262095425896016837e-02 -5.064675354608999536e-01
-2.906149406572888783e-02 5.342575179125341051e-02 -5.079336111783965269e-01
-2.066261460512963666e-02 6.448726689084594010e-02 -5.091367142161944415e-01
-1.260945976420749237e-02 7.538957569667870118e-02 -5.105645624972916519e-01
-4.500240430798913005e-03 8.633998648222140915e-02 -5.119795717491321119e-01
1.987262827410102295e-03 9.647336826210178851e-02 -5.143938761266843018e-01
-7.159399507898284165e-02 -1.979019816866704196e-01 -3.025259984598185348e-01
-1.268958599548842547e-01 -2.165743342575466579e-01 -3.454975507049898864e-01
-1.422379182172860967e-01 -2.168998714338991884e-01 -3.619657215394652683e-01
-1.552034564044000864e-01 -2.161719694793291791e-01 -3.768217602812905520e-01
-1.579406823605652987e-01 -2.107157426717082838e-01 -3.849239004289856103e-01
-1.649615195038341975e-01 -2.072786579528080042e-01 -3.958176303493928794e-01
-1.697834900826601656e-01 -2.028346376528223360e-01 -4.052509784739301013e-01
-1.746197456429852968e-01 -1.984171619990240387e-01 -4.146757165486208985e-01
-1.780124872694411331e-01 -1.933380403424809768e-01 -4.231430677601520918e-01
-1.807294968273653879e-01 -1.879516639807938538e-01 -4.311573442476235307e-01
-1.818328752982992513e-01 -1.818124632985365641e-01 -4.381138297553104355e-01
-1.827512276544779324e-01 -1.755924912514696123e-01 -4.449425985076077561e-01
-1.839273748180665913e-01 -1.695037385670140617e-01 -4.519314445797411040e-01
-1.857073187582359286e-01 -1.637111093716608068e-01 -4.593022701934860175e-01
-1.873020802505607485e-01 -1.578413908904069407e-01 -4.665439497680459180e-01
-1.880602901530272208e-01 -1.515766028634186746e-01 -4.732397984359553167e-01
-1.884152549147153077e-01 -1.451243646639712725e-01 -4.796706692072707501e-01
-1.862323328015267898e-01 -1.374442163234974312e-01 -4.844762881841450097e-01
-1.828920874209955527e-01 -1.291974002637533425e-01 -4.885477364137329470e-01
-1.788090131173184771e-01 -1.205838010266321036e-01 -4.921512779068835108e-01
-1.693036423601945173e-01 -1.093027964413895298e-01 -4.923240067749709015e-01
-1.639578732009237816e-01 -1.000445077192689824e-01 -4.951514881166402260e-01
-1.580458104584319123e-01 -9.049618525916960921e-02 -4.976304402204297928e-01
-1.508928402351068232e-01 -8.032032846638592627e-02 -4.993401611605019497e-01
-1.424085264480711988e-01 -6.946848385210920018e-02 -5.002280308762220296e-01
-1.342156680267598268e-01 -5.874049652299004332e-02 -5.013200157024091386e-01
-1.254340176153901920e-01 -4.769760671702394372e-02 -5.020608990622057455e-01
-1.162110981353585426e-01 -3.641449604789752381e-02 -5.025449474072700706e-01
-1.089464413825896316e-01 -2.609141382903094192e-02 -5.042713214354196394e-01
-9.939596763683465619e-02 -1.460077084630866801e-02 -5.045910790273039348e-01
-9.101103058375963062e-02 -3.675119675537005803e-03 -5.056561896448316107e-01
-8.237223583098421398e-02 7.398894347564750895e-03 -5.065844064455082840e-01
-6.740066050457343971e-02 2.171079633668664827e-02 -5.036212833799605937e-01
-5.848197967639504058e-02 3.297885793738181831e-02 -5.044234801897663489e-01
-4.891174682937457496e-02 4.460119294893762770e-02 -5.048456061435162567e-01
-4.162299414951023402e-02 5.507612473485692245e-02 -5.066884859108196082e-01
-3.332640146826904015e-02 6.608700895464636460e-02 -5.079288444470351216e-01
-2.522304832712091160e-02 7.701879771694569721e-02 -5.093081020169978324e-01
-1.668707322523108050e-02 8.819046749590281342e-02 -5.104402931128564358e-01
-8.973113925945158664e-03 9.895933497810838197e-02 -5.120917248915307640e-01
-2.858674836032554234e-03 1.089125924144191959e-01 -5.147291988041067246e-01
-1.793432789529122995e-02 -1.792226809862329240e-01 -2.445265101514416950e-01
-4.786016813283108795e-02 -1.860354469617827022e-01 -2.709758673290214581e-01
-8.664432665004892509e-02 -1.970393712016516030e-01 -3.032206252283247694e-01
-1.347706588835577979e-01 -2.124955734543461650e-01 -3.415383766203896054e-01
-1.507579211436614330e-01 -2.131541756248298003e-01 -3.584649539173802024e-01
-1.608968185995189315e-01 -2.111353852689189514e-01 -3.714819979142528483e-01
-1.638149405607336739e-01 -2.057715941017187466e-01 -3.797117459948713414e-01
-1.722675871493122568e-01 -2.030211098525787627e-01 -3.915661172935593903e-01
-1.772285783973132633e-01 -1.986563398942204905e-01 -4.011020588354611283e-01
-1.808678289588541155e-01 -1.936868419378382222e-01 -4.097527052168875583e-01
-1.843916299871242170e-01 -1.886765924166037278e-01 -4.183164622876771599e-01
-1.865123350365605892e-01 -1.830155170088608729e-01 -4.259506589402567434e-01
-1.874547023363950515e-01 -1.768052455554723901e-01 -4.328072573924435229e-01
-1.881431174638637793e-01 -1.704772065680493776e-01 -4.394931910378943041e-01
-1.888519230934561921e-01 -1.641686475062047179e-01 -4.461866294478397110e-01
-1.913666627038178025e-01 -1.587363239794417902e-01 -4.540379766151140251e-01
-1.932134499884021195e-01 -1.529930540863935207e-01 -4.614488450744141934e-01
-1.939684324630133461e-01 -1.467308998521104080e-01 -4.681474590335146235e-01
-1.954846827912713192e-01 -1.408459378285843999e-01 -4.753278463133269183e-01
-1.948322324612194179e-01 -1.339128001695738257e-01 -4.811110372315058337e-01
-1.916531192681920626e-01 -1.257464347926012527e-01 -4.852781002112738218e-01
-1.878116045710245541e-01 -1.172506626632718457e-01 -4.890264853404577838e-01
-1.837902414063588286e-01 -1.086583329850600854e-01 -4.926682321567108502e-01
-1.746682309560642354e-01 -9.754341370298766356e-02 -4.930782180439698958e-01
-1.688622004508651409e-01 -8.804532270243095593e-02 -4.956104782762512651e-01
-1.623711137016000394e-01 -7.819663828955890350e-02 -4.977200591456424350e-01
-1.547584116398166565e-01 -6.777462293743161115e-02 -4.991367106750533855e-01
-1.458146786805014916e-01 -5.666925560599313932e-02 -4.997343695477030057e-01
-1.373812706368086889e-01 -4.579744799809451483e-02 -5.006712840654314878e-01
-1.282500392565907310e-01 -3.455555747006977541e-02 -5.011891811880647696e-01
-1.220846924114991211e-01 -2.478641666569794677e-02 -5.035828376471650492e-01
-1.125863914923732334e-01 -1.331714322493537939e-02 -5.039114916853265624e-01
-1.040343845416483032e-01 -2.305833359739252464e-03 -5.048496357995888584e-01
-9.486271743560133196e-02 9.039889734943108712e-03 -5.054214946567973099e-01
-7.936525411909958749e-02 2.363512466196340117e-02 -5.020986347641263059e-01
-7.028960788202985588e-02 3.498613992802415001e-02 -5.027808216819037446e-01
-6.132811013048181104e-02 4.630245089069860015e-02 -5.035541391235046627e-01
-5.405932574754890307e-02 5.676850915821372162e-02 -5.053892711704930374e-01
-4.581248532204537649e-02 6.775604849151461995e-02 -5.066406001213791255e-01
-3.762087598832500324e-02 7.873480262686555209e-02 -5.079435027195243757e-01
-2.902680182704994727e-02 8.994164061278803191e-02 -5.090187793934818350e-01
-2.002053152384303258e-02 1.013819416803392326e-01 -5.098601959469459821e-01
-1.385406357848537051e-02 1.113643700536748327e-01 -5.124511686628470120e-01
-7.335895282176457810e-03 1.215425973090059342e-01 -5.148407539001077504e-01
-2.816783541473999453e-02 -1.760207016438362915e-01 -2.419110676077561028e-01
-5.588834499147379842e-02 -1.818753235301381610e-01 -2.669477344976889932e-01
-1.054331020830086563e-01 -1.979413012118176607e-01 -3.064396286052909479e-01
-1.420417467353705110e-01 -2.081431310642334609e-01 -3.371872490997431804e-01
-1.575550094786029864e-01 -2.086125291655492320e-01 -3.538334846665553979e-01
-1.664915312864236885e-01 -2.060520234770197578e-01 -3.660784332082240300e-01
-1.711790697121738092e-01 -2.015273429459291665e-01 -3.754859510685206736e-01
-1.800711419845839323e-01 -1.990037559491776853e-01 -3.876461186723695329e-01
-1.838849648370353695e-01 -1.941105271933472598e-01 -3.964391705946714861e-01
-1.874085728633094194e-01 -1.890947984580050867e-01 -4.050260023459799630e-01
-1.906519142190748473e-01 -1.839629568511191027e-01 -4.134121412537360429e-01
-1.919717050001082115e-01 -1.779262726587561572e-01 -4.205303452287416643e-01
-1.932351199746993597e-01 -1.718710739280684685e-01 -4.276026460534703144e-01
-1.937920910485828596e-01 -1.654854276606876340e-01 -4.342081176472702975e-01
-1.943993929164867518e-01 -1.591300506080609301e-01 -4.408412414243464417e-01
-1.970952453731888987e-01 -1.537911705986294841e-01 -4.488194896556791935e-01
-1.984064155900409077e-01 -1.477941217896999171e-01 -4.558898817948519033e-01
-1.999752242812140868e-01 -1.419319744222912738e-01 -4.631189219700655446e-01
-2.012799763112629037e-01 -1.359493544917891039e-01 -4.701703407273061242e-01
-2.025088899061128211e-01 -1.299374615608474282e-01 -4.771633879416568025e-01
-2.009293913951236132e-01 -1.225561109114737257e-01 -4.823502640452110857e-01
-1.973576065493443665e-01 -1.141939541543734588e-01 -4.862635935910087914e-01
-1.927988072391173258e-01 -1.053395639263696171e-01 -4.895502873790554821e-01
-1.847831148989755867e-01 -9.476249085527738147e-02 -4.906465446252638030e-01
-1.796756288875471508e-01 -8.561138242448118607e-02 -4.936071048242784975e-01
-1.736077202593069302e-01 -7.597208369302191344e-02 -4.959682142808334859e-01
-1.662514276096875576e-01 -6.567502182341719563e-02 -4.975289526842728849e-01
-1.583082340334306670e-01 -5.506743841334384854e-02 -4.987343639542015650e-01
-1.497383469078585050e-01 -4.412378503092927867e-02 -4.995623387808525440e-01
-1.403318211404874505e-01 -3.274039691702430172e-02 -4.998846621487182951e-01
-1.345114892352179681e-01 -2.314497210342537914e-02 -5.024771150569415923e-01
-1.246106404932622175e-01 -1.146961947703423190e-02 -5.025277059584917216e-01
-1.160992444995693901e-01 -4.746089421821947374e-04 -5.034706018371851721e-01
-1.071570571003540445e-01 1.076059162876939063e-02 -5.041643417273143912e-01
-9.047220697147170809e-02 2.597759672895042643e-02 -5.000659412705930063e-01
-8.231050666962823337e-02 3.686582973387730194e-02 -5.012926730381157547e-01
-7.329134354127808670e-02 4.821529314969511676e-02 -5.020076623200866450e-01
-6.569429656498924908e-02 5.885215075022657422e-02 -5.036223492662893486e-01
-5.684333298259927614e-02 7.015479201453328484e-02 -5.044800116272094570e-01
-4.897024256595164382e-02 8.097224536408104134e-02 -5.059580910956412714e-01
-4.063570941980923501e-02 9.204839162545669362e-02 -5.071711239159814033e-01
-3.091513989858926670e-02 1.038687044076681554e-01 -5.075566284477571743e-01
-2.478670600628249399e-02 1.138291760272216180e-01 -5.101529976126865096e-01
-1.871334687266951180e-02 1.237771803699159456e-01 -5.127995111410795781e-01
-1.176284544250219555e-02 1.341981814625266833e-01 -5.149225206601726335e-01
-2.902959393097287455e-02 -1.754682696965226552e-01 -2.264782474284686431e-01
-4.457720102824841435e-02 -1.756894438715514706e-01 -2.434574910801888814e-01
-8.215704734125742204e-02 -1.861848311112840604e-01 -2.751426501484567355e-01
-1.149436766969485768e-01 -1.945685698267070607e-01 -3.035114737191038636e-01
-1.435171455732973667e-01 -2.010883341788428924e-01 -3.289756797191875082e-01
-1.614141959301889084e-01 -2.026973351672107793e-01 -3.472486093266455853e-01
-1.729899868904638260e-01 -2.013926643847917808e-01 -3.612693024111057749e-01
-1.787850596589126706e-01 -1.974021453934660109e-01 -3.714245245683331920e-01
-1.832534057434186403e-01 -1.928059405187304565e-01 -3.806805039955371006e-01
-1.859811208154567852e-01 -1.874024988936043856e-01 -3.887709922279347641e-01
-1.897220085169957771e-01 -1.824933181558001938e-01 -3.975167149711037462e-01
-1.904849243630071520e-01 -1.761793436143339331e-01 -4.042897653369446065e-01
-1.947434137591928238e-01 -1.715463624497719219e-01 -4.133471447473472393e-01
-1.961090673668446083e-01 -1.655412239592226609e-01 -4.204978712573465005e-01
-1.984790296547848665e-01 -1.600289986325816038e-01 -4.282947706063529036e-01
-1.999286406503080482e-01 -1.540820525534480900e-01 -4.354812799477141283e-01
-2.004566598138662059e-01 -1.476990284161759093e-01 -4.420595043419560666e-01
-2.018107175874578885e-01 -1.417241049881268478e-01 -4.491701790275639539e-01
-2.041321103554491478e-01 -1.362296486919553906e-01 -4.568957279471745903e-01
-2.063479412376379440e-01 -1.306961379830803294e-01 -4.645420510362505695e-01
-2.075918494938419345e-01 -1.246962800013126926e-01 -4.715524369949313233e-01
-2.079320501495944551e-01 -1.182593573293243272e-01 -4.779740906338157957e-01
-2.082545229069233395e-01 -1.118197392105092502e-01 -4.843776209291729140e-01
-2.049125189567648220e-01 -1.035693314726741365e-01 -4.884323562980215083e-01
-1.973805963535162633e-01 -9.323093624789849376e-02 -4.898161802097027451e-01
-1.929506390013759065e-01 -8.442205877692071647e-02 -4.931918184757727586e-01
-1.884885124362228881e-01 -7.558762329183782436e-02 -4.965565141643658587e-01
-1.792300431543845385e-01 -6.433923036141137031e-02 -4.968846390223284892e-01
-1.712182728556029820e-01 -5.369644791731197075e-02 -4.980254568441878638e-01
-1.626205648202381226e-01 -4.273880340565883174e-02 -4.988116854935351618e-01
-1.553607987077707531e-01 -3.243456442096517151e-02 -5.004625358446157524e-01
-1.454097530178112552e-01 -2.075195512167412465e-02 -5.004343304816019078e-01
-1.367165950061257906e-01 -9.682700722324272258e-03 -5.012222403494007716e-01
-1.287610264099043333e-01 1.030897554962231788e-03 -5.024893202172664441e-01
-1.216614367156123172e-01 1.132560583385045644e-02 -5.043089977952797121e-01
-1.105800503262181489e-01 2.367958832514067274e-02 -5.036620188838415446e-01
-9.417645301267674185e-02 3.880200238756876391e-02 -4.997317167865920062e-01
-8.524817112717690548e-02 5.010958721410842948e-02 -5.004812461689300829e-01
-7.965320501270213571e-02 5.971112295290297717e-02 -5.033131666096766210e-01
-7.026968174321923666e-02 7.129283744660888655e-02 -5.038173295947195873e-01
-6.140552886317715564e-02 8.262557462590097712e-02 -5.046634014386250922e-01
-5.283413239660872396e-02 9.382840725856972375e-02 -5.057093471798115303e-01
-4.341429338583466246e-02 1.054948046576252019e-01 -5.062540413910054937e-01
-3.636074781786521881e-02 1.159429842586316428e-01 -5.082691109941966934e-01
-2.927373198913399421e-02 1.264227691352088068e-01 -5.102774792330976306e-01
-2.291788738906361256e-02 1.365324690112955652e-01 -5.127460440901332461e-01
-1.812292422158107152e-02 -1.694861048280010551e-01 -2.030400311925205370e-01
-4.147929978412787100e-02 -1.732957768907417706e-01 -2.253739200543270482e-01
-6.062760816709164557e-02 -1.752254697874990330e-01 -2.448040381290347012e-01
-1.023957924483121784e-01 -1.877558495082928824e-01 -2.793692100629324715e-01
-1.291918954869624714e-01 -1.934207310200975471e-01 -3.037743985695856574e-01
-1.584316469404342675e-01 -2.003179351852011070e-01 -3.297335914825043068e-01
-1.714572750810103297e-01 -1.996815635313372583e-01 -3.447827796323329475e-01
-1.814810034743440936e-01 -1.976753626658886986e-01 -3.577912862570791219e-01
-1.842349963756178266e-01 -1.922611050852550130e-01 -3.659363064906069329e-01
-1.898791523365575273e-01 -1.882330342887758856e-01 -3.759850588726804110e-01
-1.920920140173690283e-01 -1.825926194713493322e-01 -3.837432979643767839e-01
-1.950518837618447354e-01 -1.773206041648617837e-01 -3.919840826848559612e-01
-1.955761547630230912e-01 -1.708935328807166254e-01 -3.986066655558818672e-01
-2.002865949026903236e-01 -1.664881786530732211e-01 -4.079747239142892390e-01
-2.016488042411948844e-01 -1.604846660783179058e-01 -4.151289225843433073e-01
-2.039448429966534415e-01 -1.549430773504194003e-01 -4.228855925349951361e-01
-2.054481570697509751e-01 -1.490286752677780213e-01 -4.301150842747754055e-01
-2.065227536775759709e-01 -1.429147572364422858e-01 -4.370545803474631397e-01
-2.083059272823380992e-01 -1.371544275014586756e-01 -4.444481353733196194e-01
-2.101405158875775669e-01 -1.314294063657837908e-01 -4.518658082381299401e-01
-2.126857893944668620e-01 -1.260633623397502956e-01 -4.597326075201251250e-01
-2.151447468030178167e-01 -1.206680144862165571e-01 -4.675333562330622472e-01
-2.146370861572921007e-01 -1.138188979432398218e-01 -4.734100290037015490e-01
-2.143174874044024847e-01 -1.070646630418262135e-01 -4.794045223656289156e-01
-2.126505280804152354e-01 -9.964427922457730347e-02 -4.845310183971071050e-01
-2.062200824455371617e-01 -8.984768089983971584e-02 -4.866052616045245527e-01
-2.023074847552342737e-01 -8.129624317882341855e-02 -4.903011011484672554e-01
-1.981554706798200616e-01 -7.261930517275537456e-02 -4.938528661095085148e-01
-1.899920954962329156e-01 -6.191407603024436102e-02 -4.948581384703898411e-01
-1.834398248786897057e-01 -5.200283252448092280e-02 -4.969061710121028819e-01
-1.757508837790719425e-01 -4.150153317446796108e-02 -4.982460716221654984e-01
-1.677220210393918498e-01 -3.081051303098616967e-02 -4.993880225665700001e-01
-1.582472780097493870e-01 -1.936290908133463801e-02 -4.996376464205337653e-01
-1.503766666603597035e-01 -8.712323981395340977e-03 -5.009167431164454065e-01
-1.422345655377326434e-01 2.097691452430147652e-03 -5.020443880884335464e-01
-1.339691480871389173e-01 1.298943197572254710e-02 -5.031127271815634128e-01
-1.235745036413315873e-01 2.499803864858191754e-02 -5.028682426122222937e-01
-1.075098625410618319e-01 3.996132464353065877e-02 -4.991096575163306293e-01
-9.818892048019978169e-02 5.147329150355057364e-02 -4.995887872421591602e-01
-9.202692591113172116e-02 6.136810322968024728e-02 -5.020540673926247033e-01
-8.274466572275104848e-02 7.289953627231812727e-02 -5.025968840677471627e-01
-7.401236673958161427e-02 8.416817908063392584e-02 -5.034996364139203706e-01
-6.459092684449237176e-02 9.581962695312282174e-02 -5.039988414947418338e-01
-5.511401247258906899e-02 1.075208431304088275e-01 -5.044852230923729808e-01
-4.780252724150985122e-02 1.181051506684701602e-01 -5.063221198693933500e-01
-4.085365235488247482e-02 1.285138360272195801e-01 -5.083968749669232068e-01
-3.375183351457100578e-02 1.390223999224296791e-01 -5.103950353344045565e-01
-1.626867202722015460e-02 -1.676733561593259647e-01 -1.856202775332000954e-01
-2.861985441825323773e-02 -1.663775767961528651e-01 -2.005944341163074796e-01
-5.706926906645909403e-02 -1.726004384078000942e-01 -2.264217496896093473e-01
-8.139839136648045759e-02 -1.769972131470872456e-01 -2.493783275620496676e-01
-1.224504740901168620e-01 -1.892891147725488110e-01 -2.835296853517768056e-01
-1.460522895754204908e-01 -1.935268533565097093e-01 -3.058263998517692372e-01
-1.714291405492865406e-01 -1.986758438182030795e-01 -3.292418957533559398e-01
-1.812937561828244504e-01 -1.965845646871503538e-01 -3.421952284518308129e-01
-1.873576519913023319e-01 -1.927268937734601395e-01 -3.525781259309010984e-01
-1.903012232979504059e-01 -1.874113070469333731e-01 -3.608578870132952421e-01
-1.950365531428822352e-01 -1.829633817742936930e-01 -3.703165608200833514e-01
-1.975568834864434020e-01 -1.774746155883927257e-01 -3.782880859094693848e-01
-1.994841431641788121e-01 -1.717153328788381395e-01 -3.858533299847889397e-01
-2.008071939124669580e-01 -1.656753784092881154e-01 -3.930098697231768634e-01
-2.055085115301397425e-01 -1.612739142567627404e-01 -4.023873075775536989e-01
-2.074440111769519368e-01 -1.555529308698246627e-01 -4.099256906360257968e-01
-2.088821698661723347e-01 -1.495999277863346577e-01 -4.171287864265595946e-01
-2.110478840669076928e-01 -1.440116665302171306e-01 -4.247988243565535837e-01
-2.131772801439321685e-01 -1.384175332620757870e-01 -4.324338755265944023e-01
-2.150834560582600141e-01 -1.327240694908108642e-01 -4.399140834171476611e-01
-2.166394861553039008e-01 -1.268699806266776198e-01 -4.471551145688953399e-01
-2.189136682305733439e-01 -1.213785413688625719e-01 -4.548550095863226339e-01
-2.216716136036498419e-01 -1.161379209999907347e-01 -4.628575699434066548e-01
-2.214482437880834764e-01 -1.094324390245952627e-01 -4.689179396127187704e-01
-2.210291634542177475e-01 -1.026332904012325908e-01 -4.748488224864270135e-01
-2.195984334424755657e-01 -9.533152906046524211e-02 -4.801262924327585058e-01
-2.148360797254719456e-01 -8.636323206864096602e-02 -4.832610759843016801e-01
-2.109856924032684766e-01 -7.784332000544991192e-02 -4.869900034126027899e-01
-2.072322248972511549e-01 -6.936567289773432066e-02 -4.907868205824558183e-01
-2.005052760873027029e-01 -5.937943144760007147e-02 -4.926920172435477197e-01
-1.942766717557070921e-01 -4.963031492339003981e-02 -4.949290359605356127e-01
-1.881431718242692896e-01 -3.991546618418530257e-02 -4.972396685022704155e-01
-1.811204446340162200e-01 -2.973572307946294874e-02 -4.989970647661485792e-01
-1.719057267336840666e-01 -1.841841578545228009e-02 -4.993840299728159460e-01
-1.628724646242531160e-01 -7.170575471131500345e-03 -4.999080239486035637e-01
-1.547021643791486045e-01 3.654307279208270087e-03 -5.009947678767115997e-01
-1.463298097483926030e-01 1.460322467447939393e-02 -5.019730928105886614e-01
-1.367580347076666203e-01 2.619342542719885897e-02 -5.022195185402411610e-01
-1.198856555355322095e-01 4.159041007279359187e-02 -4.979174927705403153e-01
-1.107252217305998571e-01 5.302288936630576016e-02 -4.984729889855386009e-01
-1.043844340228921724e-01 6.300829830884033256e-02 -5.008072962154519470e-01
-9.487748761515285567e-02 7.466421924760666129e-02 -5.011876855113592821e-01
-8.586983373662827879e-02 8.607904959762252561e-02 -5.018970002554247190e-01
-7.642115790911414852e-02 9.774970531371146576e-02 -5.023560422533634995e-01
-6.649188938952828309e-02 1.096971765615610273e-01 -5.025404277781894136e-01
-5.953618418751113750e-02 1.200949386705097433e-01 -5.045778219122667441e-01
-5.245778292730077230e-02 1.305737472161027368e-01 -5.065548576372225220e-01
-4.513767585265923699e-02 1.411975147274974474e-01 -5.083991597732402390e-01
-1.795624965864825451e-02 -1.674898871357988761e-01 -1.705535137439471716e-01
-2.108197074993509168e-02 -1.619152195300095631e-01 -1.792978248620299142e-01
-4.741243144099779872e-02 -1.671381014047959579e-01 -2.038097134192846660e-01
-7.687715496046768071e-02 -1.739070505282738766e-01 -2.303690253994331583e-01
-1.036483743114575279e-01 -1.795107026388491900e-01 -2.550152663259394048e-01
-1.365948276792501581e-01 -1.880978573496731032e-01 -2.837541017247516284e-01
-1.649488592319598990e-01 -1.946282331710101898e-01 -3.092965391758929483e-01
-1.831018865469153378e-01 -1.964329505862378311e-01 -3.278872640773329294e-01
-1.893746404884149859e-01 -1.926673731954758606e-01 -3.384456475954912280e-01
-1.928936086558612484e-01 -1.876174811864892988e-01 -3.471348660837485500e-01
-1.955477907942866911e-01 -1.821707143058034495e-01 -3.552316510323600407e-01
-2.007037493573586295e-01 -1.779336452642585609e-01 -3.649851667138379607e-01
-2.027697069857646306e-01 -1.722349189178687401e-01 -3.726616179494417480e-01
-2.042812922879575777e-01 -1.662790843165951882e-01 -3.799605669217779313e-01
-2.062742606720551208e-01 -1.605665323475183315e-01 -3.875683892429248045e-01
-2.106834962394235899e-01 -1.560337159419056263e-01 -3.967662004050813707e-01
-2.127506200879246689e-01 -1.503811437765525671e-01 -4.044005053968534602e-01
-2.148503216162238605e-01 -1.447573507904905410e-01 -4.120438397563485067e-01
-2.168539706935028455e-01 -1.390953243565968001e-01 -4.196164568988339783e-01
-2.194384440786736057e-01 -1.337310058781242539e-01 -4.275574238375884351e-01
-2.219274600667999475e-01 -1.283303380160067675e-01 -4.354261215570450760e-01
-2.229409405653094423e-01 -1.222159918476819485e-01 -4.423175230905419530e-01
-2.252394199720317569e-01 -1.167435014055503706e-01 -4.500408372379794963e-01
-2.281389982106686865e-01 -1.115823693220520663e-01 -4.581427107031451618e-01
-2.278253889760223083e-01 -1.048341975353965227e-01 -4.641476864225780874e-01
-2.276303305992335990e-01 -9.814912793544081082e-02 -4.702259515875316653e-01
-2.265237849035190709e-01 -9.101172794867212756e-02 -4.757112256304031339e-01
-2.235327955123132260e-01 -8.292924273718232930e-02 -4.799804419229707353e-01
-2.199419528670429891e-01 -7.454030686197896105e-02 -4.838674262889284261e-01
-2.161034955505143629e-01 -6.601924041913165286e-02 -4.876027883623623715e-01
-2.112620205491188285e-01 -5.698524993755997581e-02 -4.906992086941120990e-01
-2.056015101018629498e-01 -4.752351315397720932e-02 -4.932837352108503381e-01
-1.998698244983851957e-01 -3.801476727687778251e-02 -4.958324514971659269e-01
-1.933082879282108646e-01 -2.806785648215489454e-02 -4.978665741164849390e-01
-1.855625488655183453e-01 -1.749952147117577600e-02 -4.991619935190610979e-01
-1.761189995454915669e-01 -6.039782031092282011e-03 -4.993994623829118851e-01
-1.674380581053456774e-01 5.049495463877069767e-03 -5.001404657346767424e-01
