ply
format ascii 1.0
comment PYTHON generated
element vertex 626
property float x
property float y
property float z
end_header
-2.033249314460938151e-01 -1.596852745147655794e-01 3.248400959360400186e-01
-2.098780721272967276e-01 -1.555946698326921840e-01 3.123913635872260786e-01
-2.138131243237877122e-01 -1.503036360388980419e-01 3.020997461164754982e-01
-2.175610536395304051e-01 -1.449428869804950948e-01 2.919790857432939535e-01
-2.205544027814642649e-01 -1.392428171130262460e-01 2.824887247183030525e-01
-2.225708124329428550e-01 -1.330964937812625648e-01 2.738020839361628989e-01
-2.252784616854159316e-01 -1.272887217402669524e-01 2.645709207662557683e-01
-2.271737427794661146e-01 -1.211104501585419102e-01 2.560088391122687934e-01
-2.287883241049867844e-01 -1.148086081939283798e-01 2.476848956099603205e-01
-2.346967597497037483e-01 -1.105799368624196810e-01 2.359226081385619733e-01
-2.392357417722690283e-01 -1.057147397292356739e-01 2.252825003349520072e-01
-2.394386010085166050e-01 -9.877559007097272414e-02 2.181309418353659657e-01
-2.441236070898941679e-01 -9.401397426681096237e-02 2.074066501946124630e-01
-2.453514269041816298e-01 -8.759337481040813111e-02 1.994589726512812078e-01
-2.460668378819150515e-01 -8.093065522322395733e-02 1.919269392091718651e-01
-2.468116608843821669e-01 -7.429206983515962426e-02 1.843797718772571814e-01
-2.460231140854495235e-01 -6.690622703571053043e-02 1.780549463987973202e-01
-2.470296275558576671e-01 -6.040865208687651311e-02 1.703151256956066950e-01
-2.471265370595192301e-01 -5.347063028805933149e-02 1.633002691726677669e-01
-2.479531025853335402e-01 -4.690121451626785842e-02 1.557188331879023613e-01
-2.493890840734922232e-01 -4.064286042257572035e-02 1.476651642882217397e-01
-2.492886108771934506e-01 -3.362785904398599840e-02 1.408260831309521843e-01
-2.489321596140010862e-01 -2.648861544931969264e-02 1.341937512683237799e-01
-2.478481104714621297e-01 -1.898981768505105666e-02 1.281343542117710510e-01
-2.474562203223533152e-01 -1.184197008453689165e-02 1.215368171755587534e-01
-2.472869228347246984e-01 -4.810436726430548926e-03 1.147701232047102504e-01
-2.462333124571715604e-01 2.663888822628426856e-03 1.086969910251461835e-01
-2.440982089397525923e-01 1.068659952718480771e-02 1.034608649732102204e-01
-2.435162230369535552e-01 1.791723729747445731e-02 9.702510509287343154e-02
-2.419463162197699746e-01 2.565078093022474942e-02 9.135561247539220053e-02
-2.401167770774501609e-01 3.351628314478257570e-02 8.588512857343733042e-02
-2.361774659893318695e-01 4.246749217738998022e-02 8.203575177178923372e-02
-2.351435771924846319e-01 4.992662135027498699e-02 7.595229043859177964e-02
-2.344804490363388283e-01 5.719010727266805177e-02 6.958738066852596105e-02
-2.335034381562690331e-01 6.461370493639034818e-02 6.346587038081819010e-02
-2.318967203579647418e-01 7.236188714660399257e-02 5.782693569358721142e-02
-2.304664344886437344e-01 8.002001078453668814e-02 5.205348705685178268e-02
-2.281919387058954918e-01 8.811713572197485411e-02 4.692202317353177943e-02
-2.250173818331960285e-01 9.668845545199100666e-02 4.247199176493032802e-02
-2.238656518119982730e-01 1.041987563860964083e-01 3.648851264160307695e-02
-2.197425862915098893e-01 1.132805841981765205e-01 3.274749519924219365e-02
-2.150780190321710250e-01 1.226525889313401785e-01 2.940705669859400295e-02
-1.850273188474427510e-01 -1.716515355579044944e-01 3.792182987590003718e-01
-1.951768824072553365e-01 -1.691372496854540441e-01 3.636783767573219528e-01
-2.004231901756874934e-01 -1.643821364417509256e-01 3.522120855530683214e-01
-2.062772011186092824e-01 -1.599347295742493957e-01 3.402700442190227381e-01
-2.107142518441924572e-01 -1.548481258100380675e-01 3.295136258204184321e-01
-2.164254974111070318e-01 -1.503788323992758247e-01 3.177352865826077455e-01
-2.194849190706469055e-01 -1.446871095223563608e-01 3.081452586428282681e-01
-2.231972852447384748e-01 -1.393169498187790400e-01 2.980384551800174808e-01
-2.257716781821675067e-01 -1.334278082994830583e-01 2.888756192860915673e-01
-2.282859058697424559e-01 -1.275223587822836568e-01 2.797754092649578084e-01
-2.295965066899854079e-01 -1.210574811650005078e-01 2.716648451008356613e-01
-2.316138450584991626e-01 -1.149403083567091532e-01 2.629917023481286864e-01
-2.327093997408808401e-01 -1.083923066409021307e-01 2.550735980475595244e-01
-2.411616531588647305e-01 -1.053987765823229256e-01 2.412416555958181164e-01
-2.419717366343188680e-01 -9.874407845492486069e-02 2.335834552996943758e-01
-2.420330381146150733e-01 -9.173352356325353840e-02 2.265351872657878074e-01
-2.450027727339940675e-01 -8.614395678993627681e-02 2.171650350859791745e-01
-2.460586006896441358e-01 -7.963585571015838194e-02 2.093379409420016435e-01
-2.474106479313177842e-01 -7.328172185295889207e-02 2.012841318135492052e-01
-2.486176167391290770e-01 -6.686602468643146335e-02 1.933539261090347350e-01
-2.469531920715121731e-01 -5.904498374094945684e-02 1.877157527695331729e-01
-2.474297283696677008e-01 -5.228259161470749650e-02 1.803809132774359392e-01
-2.484782956115626495e-01 -4.580992027164056124e-02 1.726008545219389068e-01
-2.491607925358519382e-01 -3.916641171038887786e-02 1.651184991705438865e-01
-2.495694192728140082e-01 -3.239151065237422938e-02 1.578588714623115896e-01
-2.495009640490228331e-01 -2.538677850107995404e-02 1.509815188595350355e-01
-2.490295061917884301e-01 -1.818350393530517028e-02 1.444267378004355784e-01
-2.479325697120470240e-01 -1.067006350623127264e-02 1.383658171996621777e-01
-2.464304604459398584e-01 -2.952713836907414069e-03 1.326225386289671682e-01
-2.456760159948359057e-01 4.384188731114867232e-03 1.262988342279360854e-01
-2.441003967766035565e-01 1.213450058701955742e-02 1.206152456870907552e-01
-2.423506277924268870e-01 1.997318922108944766e-02 1.150696747786982832e-01
-2.416440568616751716e-01 2.728048081708702582e-02 1.087148446074116537e-01
-2.400605766596873303e-01 3.503168440045011794e-02 1.030417099976266015e-01
-2.374157729390063976e-01 4.333081688975123219e-02 9.818954903923365896e-02
-2.342978606382512541e-01 5.187598669778317045e-02 9.369720471609729873e-02
-2.331767718320569283e-01 5.939042880145142117e-02 8.766765944043414249e-02
-2.324716896689264511e-01 6.668699503224403968e-02 8.131919814532545532e-02
-2.311108021284187797e-01 7.432188437319942054e-02 7.547690660090425330e-02
-2.288153246798787510e-01 8.244392529008023884e-02 7.035010914439959739e-02
-2.271029407143082546e-01 9.026127302922518081e-02 6.477752458449070883e-02
-2.247889971078491367e-01 9.839716654425409437e-02 5.966316119777381743e-02
-2.222328559316201213e-01 1.066598798842752771e-01 5.473041587933907826e-02
-2.187125961502082716e-01 1.154385697929314059e-01 5.052616655861419392e-02
-2.142263929656418597e-01 1.247329065404661486e-01 4.704832185137364231e-02
-2.088204024481185028e-01 1.345250102819958160e-01 4.425868096182195011e-02
-1.901091777668456329e-01 -1.728989139104747941e-01 3.930550305949019885e-01
-1.949427633042751795e-01 -1.679189612621434791e-01 3.818678303664394535e-01
-1.948124564485014532e-01 -1.606547342450548588e-01 3.748048010774839289e-01
-2.017754661394885740e-01 -1.567035790013083796e-01 3.618941686803481828e-01
-2.075622244152864337e-01 -1.522293213206398488e-01 3.499811722741931752e-01
-2.126804591139534462e-01 -1.474660269520094158e-01 3.386410284118885894e-01
-2.182782959435469461e-01 -1.429520028831962886e-01 3.269299348977630082e-01
-2.215664462148529135e-01 -1.373696390032662640e-01 3.171344151307121662e-01
-2.244573109160644120e-01 -1.316138767572530566e-01 3.076791206413658220e-01
-2.257088467586912117e-01 -1.250952333088151402e-01 2.995757543607948659e-01
-2.296932769713367906e-01 -1.198902991327281675e-01 2.892583631132478739e-01
-2.313446401244471928e-01 -1.135857365783766726e-01 2.808555763766307223e-01
-2.324404065814466847e-01 -1.070258731282831832e-01 2.729122566680624029e-01
-2.392889526478491624e-01 -1.032488449716391921e-01 2.603239468866225814e-01
-2.399721689323110196e-01 -9.651581122441715843e-02 2.527431726166010639e-01
-2.402082846559374929e-01 -8.957540707525342427e-02 2.455295260303017035e-01
-2.394948007841367354e-01 -8.217870432776275269e-02 2.390874370208097011e-01
-2.423986455069965518e-01 -7.655156966240812821e-02 2.297434510437318389e-01
-2.436761344860762513e-01 -7.014289228107256635e-02 2.217184538103125213e-01
-2.445342174788990852e-01 -6.353924756977434585e-02 2.140383753452709814e-01
-2.445607707831797817e-01 -5.653148178330563017e-02 2.070305783965272761e-01
-2.479540509859257114e-01 -5.119686518101150552e-02 1.973460071901550483e-01
-2.485264294269872998e-01 -4.447714247094335105e-02 1.899215687695348653e-01
-2.483934424149804587e-01 -3.741574952349810412e-02 1.830639458336671965e-01
-2.471785218059552869e-01 -2.981682739290609369e-02 1.770678382840663589e-01
-2.485079194756960042e-01 -2.349754470204577783e-02 1.690624467888915961e-01
-2.482964177283335516e-01 -1.641068195213876701e-02 1.622820157756154069e-01
-2.474431413534667612e-01 -9.005167566553895497e-03 1.560128088040523275e-01
-2.457161526005393060e-01 -1.161446035462983251e-03 1.504316256743830627e-01
-2.453055507030613702e-01 6.014127421357505499e-03 1.438198950012371524e-01
-2.452089482019235711e-01 1.302489834325953194e-02 1.369668968257457542e-01
-2.439723907743195919e-01 2.061375876715095673e-02 1.310099322442265790e-01
-2.415745607241063797e-01 2.879456957751382745e-02 1.259579451754477830e-01
-2.409648586765122946e-01 3.605885374124809944e-02 1.195149148424327068e-01
-2.380504988418349066e-01 4.450826422248090747e-02 1.148623033757129597e-01
-2.354681425340477696e-01 5.278940691976260341e-02 1.099510202274757709e-01
-2.341578464717846142e-01 6.041223529217065041e-02 1.040530395264452346e-01
-2.329402125671675983e-01 6.798523159404226690e-02 9.808505317386043143e-02
-2.319725252059595122e-01 7.542683131180902278e-02 9.192642065258380124e-02
-2.294357555931857973e-01 8.368842065642465022e-02 8.697695024047960577e-02
-2.290133239935723264e-01 9.084030379000954114e-02 8.040168977925654659e-02
-2.273725085097390575e-01 9.862905040640720933e-02 7.476519182525959151e-02
-2.249638446028283945e-01 1.068238278493954807e-01 6.971447874584738025e-02
-2.222963417662004726e-01 1.151596074452800045e-01 6.485990918873074662e-02
-2.176091996466480438e-01 1.245674526457011544e-01 6.153800000540529669e-02
-1.958101792240354855e-01 -1.672074359950656564e-01 3.992066880850624333e-01
-2.006600578454448280e-01 -1.622482290986191344e-01 3.879868761478417749e-01
-2.025993074455937903e-01 -1.559513255755636818e-01 3.792033621456688541e-01
-2.088688140217458966e-01 -1.516934405479048176e-01 3.668479796960039119e-01
-2.143985692316823788e-01 -1.471152384398196622e-01 3.551286435029864519e-01
-2.190252525038545450e-01 -1.421339332805246491e-01 3.441785393990415276e-01
-2.231478668585125946e-01 -1.369346545632443291e-01 3.336645171320030689e-01
-2.262998188366494301e-01 -1.312958412717988854e-01 3.239647396885879660e-01
-2.278714807013013377e-01 -1.249182934623748742e-01 3.155766553917115358e-01
-2.287260547585686088e-01 -1.182107048819136808e-01 3.077868731501948174e-01
-2.335127117241243833e-01 -1.133943325297306487e-01 2.967956603201320487e-01
-2.348201080678754271e-01 -1.069276342248512701e-01 2.886599619395832095e-01
-2.388126512583108318e-01 -1.017664766643738145e-01 2.783506119636508513e-01
-2.409205953829482438e-01 -9.571071987394505487e-02 2.695894179004311164e-01
-2.410956095563689394e-01 -8.872874135766908865e-02 2.624060932214564712e-01
-2.410345959261358251e-01 -8.163872276342645784e-02 2.554198948328506580e-01
-2.403997434621089335e-01 -7.427218061198750942e-02 2.489027458807781534e-01
-2.439804534224225829e-01 -6.897886501213981725e-02 2.389946547808258770e-01
-2.444830450392876386e-01 -6.218772480663807556e-02 2.315772624024726722e-01
-2.456006314392135681e-01 -5.570685621257853021e-02 2.236736794951956209e-01
-2.459062930588863938e-01 -4.883237212593304760e-02 2.164299169705709569e-01
-2.481085619085378335e-01 -4.290947768349412383e-02 2.076768502800231397e-01
-2.489223229537342874e-01 -3.630437504804184812e-02 2.000441796163283659e-01
-2.494719042556312050e-01 -2.957681773877252757e-02 1.926294318596242783e-01
-2.487579985758771595e-01 -2.222447426460379127e-02 1.862260833514225999e-01
-2.489531368122850641e-01 -1.533100279868632176e-02 1.791048998162234063e-01
-2.482516611046663435e-01 -7.991290465451522662e-03 1.727016625535198191e-01
-2.474126225919905664e-01 -5.852099948221653469e-04 1.664087366543203217e-01
-2.459125452361738962e-01 7.152706963786829852e-03 1.606387762491883198e-01
-2.451028020758142523e-01 1.453934402888592409e-02 1.543285844801720597e-01
-2.440906451997467697e-01 2.202508743634767202e-02 1.481786327908817258e-01
-2.426661359388607997e-01 2.972099035095283198e-02 1.423553377001497422e-01
-2.403126324985730422e-01 3.789196741191897672e-02 1.372595006406875928e-01
-2.381612020813421160e-01 4.596115886080492235e-02 1.320041431827893019e-01
-2.361100661229794673e-01 5.398063227363173594e-02 1.266676199929148150e-01
-2.342988455713464480e-01 6.187496765558211237e-02 1.211459750518110723e-01
-2.330406250926478628e-01 6.948338551948118891e-02 1.151951162596874245e-01
-2.320864895460289790e-01 7.692856860810012853e-02 1.090106463626911437e-01
-2.309858988080435438e-01 8.444972540290554552e-02 1.029419851828038412e-01
-2.292117225823656901e-01 9.232004062021356705e-02 9.739404627147341120e-02
-2.284533998527842336e-01 9.965728949066007814e-02 9.106545295262977180e-02
-2.262372305350195956e-01 1.077629041761676842e-01 8.585859838030240887e-02
-2.243801946058404662e-01 1.156777986727195451e-01 8.037443455370346657e-02
-2.216556971800175413e-01 1.240538005713564262e-01 7.555578197108570038e-02
-2.064162168482415738e-01 -1.565928115447385027e-01 3.940781615325801290e-01
-2.082862845564943111e-01 -1.502691878156619532e-01 3.853418328407575144e-01
-2.149518276835375996e-01 -1.462123690060527781e-01 3.726359876931875093e-01
-2.203356988185763143e-01 -1.415771554887488848e-01 3.610207563706412381e-01
-2.247800277273821201e-01 -1.365215210730545692e-01 3.502045953861264715e-01
-2.270667070109975982e-01 -1.304604705062654690e-01 3.411894899429425143e-01
-2.298562306841558101e-01 -1.246540446913870503e-01 3.317727927360465401e-01
-2.309765683545447756e-01 -1.180630836220721153e-01 3.237441090757061102e-01
-2.318715954055605155e-01 -1.113733583138265260e-01 3.159091457363559230e-01
-2.367286791814668945e-01 -1.066011940794605456e-01 3.048387984506910620e-01
-2.382854357855251626e-01 -1.002546983702450600e-01 2.964865458760195249e-01
-2.408743156581621137e-01 -9.442013563356158046e-02 2.873032381317608408e-01
-2.420724271335189526e-01 -8.792292623121368556e-02 2.792663020994317069e-01
-2.422698855078369851e-01 -8.094696991287696208e-02 2.720516426911334662e-01
-2.419771628095806759e-01 -7.373840157074187940e-02 2.652429502520699534e-01
-2.416939018728175292e-01 -6.653776528961655168e-02 2.584287469274739180e-01
-2.455933797468527469e-01 -6.140463823289640799e-02 2.482423743470379418e-01
-2.458901320723006212e-01 -5.450768108123676264e-02 2.409781876186573579e-01
-2.458317552846582543e-01 -4.744179248712154101e-02 2.340054466636979358e-01
-2.465798457912698194e-01 -4.078337607108202534e-02 2.263925327307690916e-01
-2.482255816444606522e-01 -3.457991436369279442e-02 2.180666291028008907e-01
-2.490418412896137634e-01 -2.797300761331272811e-02 2.104158045247184194e-01
-2.494125918270708731e-01 -2.114901914405697275e-02 2.031299350545587856e-01
-2.486121721855722444e-01 -1.374438002491298882e-02 1.967826210519740826e-01
-2.478584826517561401e-01 -6.364323068114428883e-03 1.904006505323284637e-01
-2.472066883545452620e-01 9.589755190739998603e-04 1.839424573262348206e-01
-2.460786054920009458e-01 8.521148770630225522e-03 1.778636740323658039e-01
-2.443557021298683185e-01 1.638476155882660074e-02 1.722586066018474416e-01
-2.434491851885519642e-01 2.383095858406499706e-02 1.660092676065483275e-01
-2.422225206549940002e-01 3.143949456978286511e-02 1.600151672595321317e-01
-2.399763699373114456e-01 3.956756994662825183e-02 1.548234601089384932e-01
-2.368856761968670954e-01 4.813585150752491132e-02 1.502932633290844366e-01
-2.355021846426147980e-01 5.582394048293925354e-02 1.444212157979272715e-01
-2.338525672123738797e-01 6.364722102124756309e-02 1.387593099988605472e-01
-2.318997795801905071e-01 7.162971328709180630e-02 1.333338399021097853e-01
-2.309405010077070497e-01 7.909333810664709308e-02 1.271352605498210497e-01
-2.304242422675631952e-01 8.632132544191276069e-02 1.205969956253226671e-01
-2.290893102812642801e-01 9.397678615949497938e-02 1.146959407719936319e-01
-2.269525704289917234e-01 1.020529079947968543e-01 1.094147188745186461e-01
-2.269264069838201892e-01 1.090149791279025615e-01 1.025049499901231342e-01
-2.261184979460325040e-01 1.163851942722714528e-01 9.620396522665783379e-02
-2.242042387451244068e-01 1.243413168335115726e-01 9.075501222519663513e-02
-2.113595532485648687e-01 -1.505526229467506749e-01 4.008523642598874615e-01
-2.135226311040494263e-01 -1.443727699274132414e-01 3.918606285565001679e-01
-2.189697278807692937e-01 -1.397542709395673266e-01 3.801457979788092079e-01
-2.250404831443236220e-01 -1.354546433700189734e-01 3.679385733692299709e-01
-2.289036786897470366e-01 -1.301321801413938550e-01 3.575866540950093930e-01
-2.312376498729135088e-01 -1.240979223834317580e-01 3.485180726668013484e-01
-2.326123525868414865e-01 -1.176196715256623004e-01 3.402553329195953657e-01
-2.340358435512574775e-01 -1.111750546876611179e-01 3.319642919995781094e-01
-2.347349504374177942e-01 -1.043894560181393844e-01 3.242784357233896020e-01
-2.395539602260993717e-01 -9.960519358254711630e-02 3.132177355157864662e-01
-2.426413272745177596e-01 -9.400165445001289199e-02 3.035970554232577667e-01
-2.427396130324219747e-01 -8.695976558383124166e-02 2.964376131257174807e-01
-2.434951713651073435e-01 -8.024568187155162180e-02 2.887488905856455124e-01
-2.433140127772682182e-01 -7.308156640050728070e-02 2.818296913559387162e-01
-2.432534396041875768e-01 -6.598069183391426507e-02 2.748189837086943976e-01
-2.430391242934709095e-01 -5.880965415113784817e-02 2.679380829883520887e-01
-2.466912755587718498e-01 -5.355639301421785681e-02 2.579298924528939940e-01
-2.465536764179547535e-01 -4.644077401036723202e-02 2.510027456044205962e-01
-2.469654230918296167e-01 -3.960335615883698451e-02 2.436386443258125589e-01
-2.470593089988022961e-01 -3.261365696618609422e-02 2.365368431890981782e-01
-2.476579807657069421e-01 -2.588294358927983874e-02 2.290376736529090018e-01
-2.484034530789269724e-01 -1.923390047408469333e-02 2.214255335289855298e-01
-2.488586471897068497e-01 -1.244866412140168549e-02 2.140549104622617715e-01
-2.485301758076978729e-01 -5.272166015087238755e-03 2.073183275202536979e-01
-2.459977156059539039e-01 3.016684649940495899e-03 2.023421211459982549e-01
-2.452680663884728440e-01 1.039205490049154718e-02 1.959302011318936887e-01
-2.439985331177944305e-01 1.803769424235249913e-02 1.899497246623902957e-01
-2.425832307033519708e-01 2.575629000459219581e-02 1.840871753580785031e-01
-2.406737429408412898e-01 3.372928653712971986e-02 1.786164565038511620e-01
-2.390116908761652503e-01 4.157357404161460962e-02 1.729508816486233780e-01
-2.368996727255311685e-01 4.965036771010365030e-02 1.676382708941087651e-01
-2.346226212154951252e-01 5.781330265127346962e-02 1.624553287571414151e-01
-2.331349475992967324e-01 6.556820761565748668e-02 1.566524424188224796e-01
-2.316746278650271829e-01 7.330803023834436827e-02 1.508280668464478946e-01
-2.297369881628700539e-01 8.129544136673277910e-02 1.453781446088426854e-01
-2.281208681481576295e-01 8.911447896302654437e-02 1.396772206191215782e-01
-2.271118865950509935e-01 9.661576085009357384e-02 1.335041178421991770e-01
-2.261856527353286461e-01 1.040687784262628590e-01 1.272686658111964464e-01
-2.242944024482030618e-01 1.120289281225884115e-01 1.217848067378200505e-01
-2.247041790014177309e-01 1.187697887409316366e-01 1.145205772723474347e-01
-2.243050847626228139e-01 1.259328699502985371e-01 1.078873273112208875e-01
-2.164098584362378896e-01 -1.373614753419299950e-01 4.003497103879909425e-01
-2.227410026835000556e-01 -1.331712877701624054e-01 3.878735206295619298e-01
-2.283917750022966819e-01 -1.286822505326968291e-01 3.759924223842541213e-01
-2.310769801121611844e-01 -1.228037104185438766e-01 3.666015847074510781e-01
-2.356961389924797645e-01 -1.178639900258351136e-01 3.556190282878237130e-01
-2.365486304157089492e-01 -1.111383662459919097e-01 3.477781632086626162e-01
-2.370685658447783950e-01 -1.042590156862013839e-01 3.402219049003084028e-01
-2.368553414817001490e-01 -9.703376851968786854e-02 3.332784605693994151e-01
-2.418897445044769778e-01 -9.235896254289402418e-02 3.220164483129078214e-01
-2.421258048420567299e-01 -8.537158007982056929e-02 3.147214792438637332e-01
-2.424374332745664884e-01 -7.842621166075057493e-02 3.073731754892200518e-01
-2.431407824433543252e-01 -7.168015915015016337e-02 2.997092775028690759e-01
-2.437365502070029943e-01 -6.489019919349306442e-02 2.921405434582884375e-01
-2.440616446764997949e-01 -5.797455158193254299e-02 2.848008653372626764e-01
-2.434975457285744604e-01 -5.062441080286400608e-02 2.781931888163099997e-01
-2.449459461812750760e-01 -4.427655451965279571e-02 2.699531966192901811e-01
-2.454215001176310862e-01 -3.745866936077784509e-02 2.625118463003069946e-01
-2.455084182007680749e-01 -3.045085816694668990e-02 2.553938443240739709e-01
-2.447306405478859304e-01 -2.301525203572702544e-02 2.489793067521772763e-01
-2.460964408744333864e-01 -1.666181720715845943e-02 2.408403907786000886e-01
-2.473825830529547964e-01 -1.027788376644848956e-02 2.327751359808095111e-01
-2.479047813193919203e-01 -3.517884948280550206e-03 2.253335921541023690e-01
-2.465487294246684336e-01 4.188425863798993232e-03 2.194055923795535934e-01
-2.444797824611731063e-01 1.225672956091729965e-02 2.140470267182011388e-01
-2.440747162439799167e-01 1.947557972732574111e-02 2.073623796950002096e-01
-2.429657593544401473e-01 2.705050224163487588e-02 2.012402436007411088e-01
-2.411447054538474466e-01 3.498808538682864760e-02 1.956882342371106254e-01
-2.400095380950506008e-01 4.257306143315477825e-02 1.895911181237108778e-01
-2.373371069281933754e-01 5.095140447376831500e-02 1.847124718286735634e-01
-2.330627850628605446e-01 6.016322277694368531e-02 1.810993724069178690e-01
-2.327975731383636893e-01 6.729727136135585375e-02 1.743150333244867234e-01
-2.314154274467993821e-01 7.500894491186310686e-02 1.684141855108099439e-01
-2.302718297290613780e-01 8.259313917786620385e-02 1.623275368603996904e-01
-2.276528462409724840e-01 9.095103713835545056e-02 1.574002493704357852e-01
-2.272994291370915021e-01 9.811949334817543500e-02 1.506979069467686561e-01
-2.251933258375238833e-01 1.062081321782826493e-01 1.453670610862938251e-01
-2.226932149763395097e-01 1.145061445362181296e-01 1.403447479639150508e-01
-2.205688742013867387e-01 1.226076302025375653e-01 1.350270423225890526e-01
-2.164958010688760870e-01 1.317466142944953289e-01 1.312206927062787298e-01
-2.199569672119987551e-01 -1.306518609590182900e-01 4.083016225466193916e-01
-2.251552550159466592e-01 -1.259315141557597606e-01 3.967504726336819054e-01
-2.298530114882062769e-01 -1.209962193666576091e-01 3.856410131567540311e-01
-2.328186847630508705e-01 -1.152525038529640111e-01 3.759960830535387100e-01
-2.376801333943235894e-01 -1.104353107368782061e-01 3.647893130522468219e-01
-2.385457239293745091e-01 -1.037124678875540884e-01 3.569247561093062404e-01
-2.394950888980624804e-01 -9.703822736521758308e-02 3.489992486790784998e-01
-2.395134446849749021e-01 -8.992234748202784789e-02 3.418538026719172840e-01
-2.439116612255636252e-01 -8.494485145338474819e-02 3.310961724644561066e-01
-2.444599912637127337e-01 -7.810604872710963376e-02 3.235304971208294855e-01
-2.443849130677758774e-01 -7.097062366593766269e-02 3.164874013264764585e-01
-2.453192730113694098e-01 -6.433561194644268899e-02 3.086215151958019431e-01
-2.453019874623464658e-01 -5.723974144217725685e-02 3.015431950443823728e-01
-2.453493288037394970e-01 -5.018397920618663383e-02 2.944177978380432825e-01
-2.447084063380959296e-01 -4.279048060508824219e-02 2.878613510865365988e-01
-2.450862717633595089e-01 -3.590901243833029277e-02 2.804780289438263408e-01
-2.454292676778902782e-01 -2.901726675794241012e-02 2.731294880956044446e-01
-2.459928027733968570e-01 -2.224115928778255119e-02 2.656089927791585037e-01
-2.456662297213447477e-01 -1.502653560237102864e-02 2.588176744653418737e-01
-2.458238108806828082e-01 -8.060054134029569217e-03 2.516400501189022809e-01
-2.463013156120270886e-01 -1.263281689473996772e-03 2.442100387854827526e-01
-2.464979992401251652e-01 5.670127756802249841e-03 2.370124758130668363e-01
-2.451562972177090682e-01 1.338068968558003141e-02 2.310593312802312616e-01
-2.429939973866660219e-01 2.151021856428528972e-02 2.257650950116870114e-01
-2.419077087182583408e-01 2.908648894396197865e-02 2.196087725268018320e-01
-2.410229236977218248e-01 3.655930020377708839e-02 2.132929431754098659e-01
-2.395270221726019111e-01 4.434203677260997040e-02 2.074681932707542753e-01
-2.376839598659645225e-01 5.230487391333640129e-02 2.019194515671458023e-01
-2.347906395008815539e-01 6.081292754494594527e-02 1.972063638002960473e-01
-2.320420615393090913e-01 6.924836277226736891e-02 1.923739501014616882e-01
-2.312229301494420353e-01 7.668072774771739208e-02 1.860124424619430394e-01
-2.295717977190649128e-01 8.454435279793864888e-02 1.803111306080116272e-01
-2.284064202778155195e-01 9.215279529753880872e-02 1.742284557669848688e-01
-2.264262478688892355e-01 1.001883648770308111e-01 1.687878799149397646e-01
-2.235291565731460650e-01 1.087088256679612230e-01 1.640649195889635203e-01
-2.213923811637588945e-01 1.168313183004569544e-01 1.587435448914761293e-01
-2.195031581246232877e-01 1.248204111113106474e-01 1.532294461730002721e-01
-2.178066630194682163e-01 1.327109595775045614e-01 1.475634699216330503e-01
-2.274725247138347783e-01 -1.186317823359979151e-01 4.057287409448904203e-01
-2.309582146352223697e-01 -1.131210895766493196e-01 3.956122791666373262e-01
-2.346921429744633636e-01 -1.077468139247505230e-01 3.853052118154790540e-01
-2.386295210942652734e-01 -1.024887342817902836e-01 3.748464187727136299e-01
-2.406458496887315945e-01 -9.631934507841369286e-02 3.660067895743533972e-01
-2.413718286005188396e-01 -8.953783388475766714e-02 3.582533042719934224e-01
-2.449958291641962382e-01 -8.417251649251356049e-02 3.481018395570175672e-01
-2.459173968727881854e-01 -7.750630958033744022e-02 3.402070824941110239e-01
-2.463347696668490294e-01 -7.060068666610044841e-02 3.327391596667739204e-01
-2.463007138398456419e-01 -6.348145136936220179e-02 3.256508692426585139e-01
-2.469384017946474330e-01 -5.669883672866007224e-02 3.180138436083997378e-01
-2.469900618716703855e-01 -4.963256482274334969e-02 3.108688260612345045e-01
-2.463983634513675636e-01 -4.225346844381992067e-02 3.042560110676151286e-01
-2.454986067183066445e-01 -3.472734351506805150e-02 2.978992656490669910e-01
-2.456536507995554230e-01 -2.772855534396637817e-02 2.906843942916323975e-01
-2.455738058275209745e-01 -2.061838007933482209e-02 2.836666221607083704e-01
-2.454859878616139357e-01 -1.351099811889810293e-02 2.766607297914956409e-01
-2.451636215350740389e-01 -6.289549795213768280e-03 2.698512169675043593e-01
-2.443787640482384949e-01 1.160483305532956921e-03 2.634219043867405130e-01
-2.441677547197977083e-01 8.317241198596884988e-03 2.565306579907682405e-01
-2.432118323500769008e-01 1.584626120399553612e-02 2.502471171534997874e-01
-2.417375676435356835e-01 2.363905947952921888e-02 2.443832242807624233e-01
-2.404456590416452766e-01 3.133689269391367466e-02 2.383736979738853012e-01
-2.393275595130480993e-01 3.894366986041546824e-02 2.322268737158450502e-01
-2.378913658727150326e-01 4.671210995521651171e-02 2.263380856396745577e-01
-2.357254071211281887e-01 5.485773102489626546e-02 2.210325509813535483e-01
-2.347092028291363486e-01 6.240774982178769886e-02 2.148095040368653286e-01
-2.321777338105305011e-01 7.074263326791935258e-02 2.097945436293906507e-01
-2.288699935932226037e-01 7.948664991458184725e-02 2.053946414955247213e-01
-2.282834690935991173e-01 8.680930959061797236e-02 1.988325309465472368e-01
-2.268934361857635751e-01 9.455149401529205910e-02 1.929090998852445171e-01
-2.254214583045618947e-01 1.023342346714667672e-01 1.870522685061181134e-01
-2.228063268624354831e-01 1.107214054762396260e-01 1.820968327552802135e-01
-2.184256294707363211e-01 1.200472857203683241e-01 1.785301759594480897e-01
-2.180601061794556761e-01 1.272439198370619307e-01 1.718010810516322762e-01
-2.168439990173296750e-01 1.348903574202639788e-01 1.657424840191791260e-01
-2.326103583578896516e-01 -1.054887767212632776e-01 4.051490875874724784e-01
-2.358831600487234781e-01 -9.989583501818136146e-02 3.952076514396727358e-01
-2.397738004775257226e-01 -9.461705736713904580e-02 3.847647089779343554e-01
-2.414395520393640970e-01 -8.827760863855907414e-02 3.762011691721941498e-01
-2.450319628420694895e-01 -8.288667437568922325e-02 3.660411028973898917e-01
-2.463519519501091437e-01 -7.640277879353923884e-02 3.577908453675500144e-01
-2.466262782205980719e-01 -6.941502528068921318e-02 3.504198441297138311e-01
-2.470192530977566581e-01 -6.249452743369970226e-02 3.429566689207650954e-01
-2.469989777678763820e-01 -5.537271452804514577e-02 3.358432472702911342e-01
-2.478206056971510585e-01 -4.867923778582119304e-02 3.280396096900591862e-01
-2.475224821369652051e-01 -4.143386278361235048e-02 3.211678163422835297e-01
-2.471258935781833199e-01 -3.414681584083161664e-02 3.143828379213721713e-01
-2.461874917414302311e-01 -2.658963041388622689e-02 3.080474434275225493e-01
-2.465360495687614339e-01 -1.968422717061871913e-02 3.006590234079318247e-01
-2.461069903347032073e-01 -1.239327530191327437e-02 2.939144619444687412e-01
-2.458876410872230800e-01 -5.212370836053484280e-03 2.870027778128111384e-01
-2.454608686785042793e-01 2.068523413292944202e-03 2.802652778429589597e-01
-2.426648652370478887e-01 1.054830973925308807e-02 2.754582865917765133e-01
-2.416399756710659874e-01 1.812817166446550193e-02 2.692119637822300016e-01
-2.405519479822872675e-01 2.573741649274840365e-02 2.630190869037826173e-01
-2.392008746382798812e-01 3.348083883565457913e-02 2.570405480578049628e-01
-2.377138346046533124e-01 4.129196480764699834e-02 2.511737058101959352e-01
-2.367186977560553351e-01 4.885037180345735280e-02 2.449115294295547418e-01
-2.354328206776495069e-01 5.655535938587030048e-02 2.388858999967281571e-01
-2.335098406456360132e-01 6.458769587262558343e-02 2.333735183301967053e-01
-2.314223966294067791e-01 7.270784713984279612e-02 2.279907917492826064e-01
-2.287334052179038901e-01 8.114205251196482394e-02 2.230886500882589552e-01
-2.258074619480131273e-01 8.970507266028235338e-02 2.183736944988329265e-01
-2.245579431479600152e-01 9.738905736386074818e-02 2.123196526476970325e-01
-2.228804573433932346e-01 1.052970458863966008e-01 2.066081916159270282e-01
-2.208194524789557078e-01 1.134061378596607217e-01 2.012011512035139504e-01
-2.177904705597892843e-01 1.220309451872683415e-01 1.965588875537310765e-01
-2.117732136676168941e-01 1.322498273971106919e-01 1.942719182110524967e-01
-2.125797770267101594e-01 1.388411520114235798e-01 1.865954021183979794e-01
-2.388011511103662610e-01 -9.286057009771209181e-02 4.036832953495818055e-01
-2.400961420315039507e-01 -8.632547811864044185e-02 3.954012039807096590e-01
-2.427814503884353492e-01 -8.048003291135294446e-02 3.859631960971411369e-01
-2.466254960311717592e-01 -7.521486719252670761e-02 3.755712733751269683e-01
-2.488865225366489742e-01 -6.919112950396447137e-02 3.665201818793873967e-01
-2.485957810249355693e-01 -6.192339138387725067e-02 3.596070429338057428e-01
-2.480907821084801790e-01 -5.455510976893453851e-02 3.528799408478834332e-01
-2.469179223509967436e-01 -4.685892962562310943e-02 3.467100207005801016e-01
-2.454383717136592591e-01 -3.901337967885572938e-02 3.407968492138517824e-01
-2.454872753546585296e-01 -3.193054695872864918e-02 3.336209941276562230e-01
-2.453294418820209655e-01 -2.475074174092267015e-02 3.266214416513492091e-01
-2.441047352235062307e-01 -1.704115685103780448e-02 3.205051057445007512e-01
-2.441035047513295531e-01 -9.948274686235554498e-03 3.133863521136360242e-01
-2.442209228858218395e-01 -2.922648187293437616e-03 3.061754245116593554e-01
-2.437696312254847841e-01 4.386187613637605731e-03 2.994369823695200439e-01
-2.420416397202755365e-01 1.233954128308246273e-02 2.937467474850216087e-01
-2.397423109022451260e-01 2.058348260415802239e-02 2.885226562480408541e-01
-2.388393572760094952e-01 2.811531237476915662e-02 2.821595825490998966e-01
-2.371929700515147121e-01 3.602543054299588848e-02 2.764034676637157073e-01
-2.353742578590480028e-01 4.402425521914354184e-02 2.707874617950094542e-01
-2.349719877940320278e-01 5.129007541312764068e-02 2.640249824400834333e-01
-2.335176471182157099e-01 5.909629069725947509e-02 2.581184293843872823e-01
-2.320088273610776963e-01 6.693166490284888082e-02 2.522555609461618609e-01
-2.307729723857308290e-01 7.462291800893292026e-02 2.461742558886553245e-01
-2.291738893064032834e-01 8.250175169735324276e-02 2.403870287649442217e-01
-2.265187360030805619e-01 9.093439339717820924e-02 2.354451492319759032e-01
-2.231082838422499270e-01 9.976800396857662956e-02 2.311065459244733278e-01
-2.250691414957849135e-01 1.057693460638282346e-01 2.224747974181526811e-01
-2.219763307439214517e-01 1.144349294055562738e-01 2.178803034407217898e-01
-2.186097524902482214e-01 1.232523419261868924e-01 2.134999956544766375e-01
-2.147581006327505815e-01 1.323302955368733380e-01 2.094996114927461517e-01
-2.100657747063683634e-01 1.418648606796729383e-01 2.061585109982425057e-01
-2.390316022297289678e-01 -7.733481856838250734e-02 4.072347039893420284e-01
-2.405742452856189928e-01 -7.092494970831983436e-02 3.987360990221332502e-01
-2.408399860466192699e-01 -6.389917636451608596e-02 3.913180323418899986e-01
-2.422255949694968880e-01 -5.742999207428643033e-02 3.829702534092024324e-01
-2.420448167904630243e-01 -5.019966649173878553e-02 3.759416646274499341e-01
-2.483209924018653370e-01 -4.617791412442997373e-02 3.635310270449009229e-01
-2.474601736624173209e-01 -3.862930795598092798e-02 3.570896944736540735e-01
-2.456715286474705773e-01 -3.061963979280974552e-02 3.514240781738766639e-01
-2.457416210665804013e-01 -2.354148549259608286e-02 3.442147834422031316e-01
-2.459670610633643006e-01 -1.654891046736021304e-02 3.368841826398172312e-01
-2.453451356526934746e-01 -9.133480138940573700e-03 3.302598873612100916e-01
-2.437479678112389192e-01 -1.229388367645571634e-03 3.244438464230505748e-01
-2.430911728898359214e-01 6.196319474403931549e-03 3.178543324389312419e-01
-2.422458736678814728e-01 1.371452880316331030e-02 3.114244230348887088e-01
-2.404325069512968371e-01 2.172352513314720207e-02 3.057901955921502601e-01
-2.373071041894403987e-01 3.040608001963233248e-02 3.012304287814926429e-01
-2.362900540369987645e-01 3.800629353885131428e-02 2.949441726728623259e-01
-2.356274562746451251e-01 4.542384125093647945e-02 2.883714679640534406e-01
-2.343586470264389932e-01 5.315062995352511782e-02 2.822961303865863525e-01
-2.316395482180023946e-01 6.162873846106007442e-02 2.773998885459578734e-01
-2.306067760980489989e-01 6.923073543519631112e-02 2.711345402994482789e-01
-2.294745075769455966e-01 7.688311819123797020e-02 2.649510504023478985e-01
-2.287523139399234018e-01 8.431864740900815725e-02 2.584409580344018131e-01
-2.264586712904268218e-01 9.257543965363743133e-02 2.531979255420984676e-01
-2.236648024447777661e-01 1.010962299510221596e-01 2.483557110045029326e-01
-2.200712988070949450e-01 1.100445745198630754e-01 2.441535070617311676e-01
-2.208952631057231331e-01 1.166564953698055740e-01 2.364077572071113797e-01
-2.174640532993341868e-01 1.255223919839537905e-01 2.320709686651230008e-01
-2.137944075292352863e-01 1.345194529142599571e-01 2.279185551292175482e-01
-2.103325302753265291e-01 1.434108275055538118e-01 2.235947955608794113e-01
-2.408900927271948045e-01 -6.257660588972990823e-02 4.094223557962620719e-01
-2.411320049464776849e-01 -5.553428410539188592e-02 4.020090232024783328e-01
-2.416198687582752913e-01 -4.861832180914498619e-02 3.943980235421784553e-01
-2.412628826704915630e-01 -4.129056759100913770e-02 3.875010970486290063e-01
-2.409527433628071980e-01 -3.399208632880785369e-02 3.805716460180303962e-01
-2.409676490827790118e-01 -2.686051249986414619e-02 3.733744380877200841e-01
-2.391551662015147517e-01 -1.881754424567271683e-02 3.677064402530770826e-01
-2.391361171408888375e-01 -1.167971595084218300e-02 3.605468382147000161e-01
-2.389836122362179738e-01 -4.476871582977638708e-03 3.535031426070001093e-01
-2.382728860384631386e-01 3.000912009776222911e-03 3.469278203403991512e-01
-2.348829441914576932e-01 1.183674560133237547e-02 3.425724648753697421e-01
-2.329183152879946428e-01 1.995121246339916915e-02 3.370356592024941755e-01
-2.395793382375687453e-01 2.365714020281605573e-02 3.243913212020574921e-01
-2.371574685474925337e-01 3.199381096790506612e-02 3.192438415863873002e-01
-2.346800930358417803e-01 4.035997867054157834e-02 3.141386478213943900e-01
-2.337134056791100589e-01 4.794913698314932221e-02 3.077959964067942256e-01
-2.325652769478634974e-01 5.562923730916247839e-02 3.016018030237783698e-01
-2.313013558104715373e-01 6.336820918945909598e-02 2.955068315735569495e-01
-2.279271359309765488e-01 7.220225932609836139e-02 2.911305682464078726e-01
-2.269612512942635052e-01 7.978370955930905173e-02 2.847921672599028620e-01
-2.250272898383208209e-01 8.787269844422995746e-02 2.792423326133763872e-01
-2.243071327738876408e-01 9.532041912604269362e-02 2.727091162216574993e-01
-2.220915474946801027e-01 1.035537530920814520e-01 2.673874795080394273e-01
-2.189595082770394996e-01 1.122738508999503726e-01 2.628036765552474452e-01
-2.141650613525347413e-01 1.218784401538023920e-01 2.595533407232022416e-01
-2.146358071136458545e-01 1.286929263543180324e-01 2.520666650168922884e-01
-2.122637308440938342e-01 1.370168684050142582e-01 2.468628036271814929e-01
-2.096014790576199438e-01 1.454974403753373779e-01 2.418919178426931493e-01
-2.380391492925475472e-01 -4.546968175897472125e-02 4.155886613321791989e-01
-2.402081582888325184e-01 -3.937727844750252976e-02 4.065390448853216654e-01
-2.405288232506059276e-01 -3.237818387804852066e-02 3.990563421396323696e-01
-2.399346612841995463e-01 -2.492898494702388418e-02 3.923494533789829708e-01
-2.379287597590544479e-01 -1.677607923712246679e-02 3.868276568184841890e-01
-2.386139129098945044e-01 -9.974284853273444884e-03 3.790565388658174717e-01
-2.386347428055323183e-01 -2.847617513197321648e-03 3.718482114508728786e-01
-2.376663164284309182e-01 4.774515248016149294e-03 3.654690056427092326e-01
-2.359421553989675402e-01 1.277838508321036542e-02 3.597211431293142470e-01
-2.350017689513947405e-01 2.038241821691972461e-02 3.533225665351799050e-01
-2.337201581435868480e-01 2.815715376267551723e-02 3.472112424041555734e-01
-2.315458145912471788e-01 3.639004385283036574e-02 3.418380015888105028e-01
-2.294885188678388310e-01 4.456271861067618439e-02 3.363676437568257627e-01
-2.281618907402037655e-01 5.235868101687925907e-02 3.302944933577385833e-01
-2.273143997951107831e-01 5.990350049287359452e-02 3.238301750720739003e-01
-2.260253853686152170e-01 6.767711624221614541e-02 3.177307171708317890e-01
-2.237331959296239015e-01 7.596955391883469799e-02 3.124539007546951463e-01
-2.223273623567309232e-01 8.380237923855043958e-02 3.064522660194537451e-01
-2.221240466158811988e-01 9.100153868641239208e-02 2.994706690403279858e-01
-2.201400368243639494e-01 9.913388119437052670e-02 2.939434728397953833e-01
-2.178571924744495403e-01 1.074230776035685064e-01 2.886590135581134087e-01
-2.150844937577124916e-01 1.159726927820113607e-01 2.837691281323876380e-01
-2.115678947530487686e-01 1.249193595324273598e-01 2.794776736001702844e-01
-2.069894086965404778e-01 1.344368016400121213e-01 2.760377025020170905e-01
-2.061811322303253313e-01 1.419522341255944342e-01 2.695520197597246481e-01
-2.044850111303919138e-01 1.499380043332840251e-01 2.637847864603576897e-01
-2.390165308150306034e-01 -3.021696598796069083e-02 4.185336379015994757e-01
-2.380922974675216963e-01 -2.258710868633202057e-02 4.120825285653803016e-01
-2.375911214434970331e-01 -1.517219505990390765e-02 4.052789929145258485e-01
-2.361936919970288040e-01 -7.308968813156714595e-03 3.992338535376094288e-01
-2.335645922711325206e-01 1.173056770677256833e-03 3.942211114330936850e-01
-2.328320647796510712e-01 8.696331918493234447e-03 3.876202836078523895e-01
-2.325318276906117310e-01 1.599773709203537037e-02 3.806608124330833620e-01
-2.316667590852203862e-01 2.358200526514198786e-02 3.741787156359641653e-01
-2.282012304940844172e-01 3.249335620167388000e-02 3.698624636138836408e-01
-2.267689315368839886e-01 4.036685996205085364e-02 3.638521055314550834e-01
-2.262553517732397435e-01 4.776478558270432634e-02 3.570814958137886741e-01
-2.253021899985807874e-01 5.538714641287281054e-02 3.506799698447832236e-01
-2.216630763543862848e-01 6.439692346059419648e-02 3.464981641125632894e-01
-2.205380469768233320e-01 7.210597927481163238e-02 3.402381594589580227e-01
-2.200094312932691087e-01 7.950267106457475919e-02 3.334905760514957351e-01
-2.179746871185760937e-01 8.768138448137743901e-02 3.279838998488731061e-01
-2.149734622400911177e-01 9.636897204158215158e-02 3.232671752210936056e-01
-2.126766944881211541e-01 1.046899007821614769e-01 3.179726780070722403e-01
-2.097097697451841269e-01 1.133655373209544182e-01 3.132211856167330666e-01
-2.079539098656490725e-01 1.214035989746267974e-01 3.074813954995314624e-01
-2.030681449049031029e-01 1.311022406788573680e-01 3.042839553512295403e-01
-1.989948805031787893e-01 1.403799287682911678e-01 3.004185487843004099e-01
-1.949920458328205097e-01 1.496256687194148227e-01 2.964892558871417561e-01
-1.924903395326703348e-01 1.580735188341370612e-01 2.913401154885479905e-01
-2.354042500342570232e-01 -1.263368413466297441e-02 4.253660840477669902e-01
-2.337594922377713991e-01 -4.629688002966599047e-03 4.195108170305370532e-01
-2.315401004707884347e-01 3.662423919586953180e-03 4.141391549577805309e-01
-2.282802775907359638e-01 1.248551619977290167e-02 4.096416437483557660e-01
-2.276667178283599546e-01 1.996545827291106717e-02 4.029184429026884118e-01
-2.265245681555666246e-01 2.771195126036916229e-02 3.966420720363508234e-01
-2.252756304730532677e-01 3.551139526497263527e-02 3.904579999185531225e-01
-2.218604600153281092e-01 4.442006682013582147e-02 3.860817947798393934e-01
-2.208807208462453542e-01 5.207942105931178539e-02 3.796729712942971124e-01
-2.197582927541572306e-01 5.981071767059615435e-02 3.733862712743267753e-01
-2.181862515143776771e-01 6.777270804462315335e-02 3.674741794204775536e-01
-2.151919682272133982e-01 7.647180275035556085e-02 3.627406184535301170e-01
-2.141414586341130744e-01 8.416042585812444354e-02 3.563964009795077548e-01
-2.121829423694362171e-01 9.232372709182426473e-02 3.508054713606827413e-01
-2.105568794134036192e-01 1.003128648634366571e-01 3.449384764230261080e-01
-2.082279554462932447e-01 1.086699969463663928e-01 3.396506393064764318e-01
-2.053035278530108698e-01 1.173438458312494326e-01 3.348496477305648034e-01
-2.009159262833113968e-01 1.267959171653906536e-01 3.312414764726429039e-01
-1.988644025060383180e-01 1.350147470251519821e-01 3.257177143759987237e-01
-1.961991376272080034e-01 1.435631405230787527e-01 3.206939380391413685e-01
-1.933792112183054523e-01 1.521940960101755003e-01 3.157935862210794475e-01
-1.880274968854565854e-01 1.621866638719640930e-01 3.129444072116106534e-01
-2.291780689017172690e-01 6.330313731865870597e-03 4.344274152688307744e-01
-2.273937975051863458e-01 1.442179071527615458e-02 4.286711206295411580e-01
-2.249646864270256619e-01 2.284070169116123733e-02 4.234594656036533289e-01
-2.237714616784047816e-01 3.063088631774660980e-02 4.172043344165160539e-01
-2.225344750327430399e-01 3.844095402675361955e-02 4.109894818774711966e-01
-2.212795962666468941e-01 4.625817201644737836e-02 4.047906076869483005e-01
-2.172886344388551549e-01 5.548511564787601130e-02 4.008838033139138224e-01
-2.161143332132213768e-01 6.325943615244150608e-02 3.946176503557110582e-01
-2.151211326694513204e-01 7.094013537388402235e-02 3.882037590472137145e-01
-2.139754407485316978e-01 7.869802975872697282e-02 3.819182217711107885e-01
-2.097650738278349913e-01 8.805233444118990005e-02 3.781797869917793431e-01
-2.076746762643350563e-01 9.630323056108067159e-02 3.726766696704730819e-01
-2.058542752719847990e-01 1.044147046613899399e-01 3.669494935988545370e-01
-2.026484385510714525e-01 1.132570203411839838e-01 3.623667326732240568e-01
-2.000981633583676644e-01 1.217542503642244089e-01 3.572394839754768903e-01
-1.967721939254639119e-01 1.306661712498408401e-01 3.527460859554434336e-01
-1.926708709450104529e-01 1.399954622677508642e-01 3.488858189318344016e-01
-1.893070544661327737e-01 1.489391113974068426e-01 3.444144644539322564e-01
-1.878438331463630484e-01 1.568687180435736350e-01 3.383833920171068210e-01
-1.847131975952143734e-01 1.656959595563542442e-01 3.337149789084795648e-01
-2.330059112745897498e-01 2.024938089466806618e-02 4.349834716506236765e-01
-2.276077771351541212e-01 3.018892769624816758e-02 4.322840149690082567e-01
-2.269312863623000887e-01 3.771849023198615286e-02 4.255854868357774601e-01
-2.252174446971358379e-01 4.577801907708586165e-02 4.197653058662579317e-01
-2.235219525174730881e-01 5.382838611762725406e-02 4.139305588469390784e-01
-2.165478155438181895e-01 6.460870366806767406e-02 4.125252087364753573e-01
-2.157379809370350565e-01 7.220696730849371359e-02 4.059411612032720607e-01
-2.143717451728404666e-01 8.008887572880749040e-02 3.998240205847296558e-01
-2.128541567818668656e-01 8.805132632808509996e-02 3.938352069347236251e-01
-2.111034994732812753e-01 9.613386957589153958e-02 3.880420260847916580e-01
-2.085086596635178369e-01 1.046586907607506556e-01 3.829508056070414224e-01
-2.063804150540446969e-01 1.129413151246809466e-01 3.774697318278659175e-01
-2.035512462415833279e-01 1.215959485613375135e-01 3.725684814233718445e-01
-1.995702799933544713e-01 1.308630044367321832e-01 3.686159998328640830e-01
-1.948502018035131456e-01 1.405311183591749502e-01 3.652661048404582944e-01
-1.911440082271310681e-01 1.496672503610424754e-01 3.610713564575348533e-01
-1.859607341801936542e-01 1.596004696473267426e-01 3.580853120176209492e-01
-1.791808163258943876e-01 1.704020549316322131e-01 3.563973208943859161e-01
-2.245990081287956297e-01 4.045135248812382206e-02 4.459234607706026310e-01
-2.232113333337406580e-01 4.836018841175219324e-02 4.398095742801539920e-01
-2.218143134496095015e-01 5.627226560280099849e-02 4.337033306552500189e-01
-2.202658289285815418e-01 6.426119994116027967e-02 4.277268398295336338e-01
-2.105496736516810352e-01 7.649353707743875019e-02 4.286292537145767190e-01
-2.092935132302823908e-01 8.434171799186671037e-02 4.223952374292131440e-01
-2.090233141652312332e-01 9.167132581963413629e-02 4.153378705193147002e-01
-2.076075994406471059e-01 9.959826137076685515e-02 4.092433548148374234e-01
-2.051625021553260542e-01 1.080663323606991244e-01 4.040117487016968711e-01
-2.034594681143429007e-01 1.161415137198819891e-01 3.981572565641250394e-01
-2.017492544749069916e-01 1.242229453459584299e-01 3.923117789950333334e-01
-1.966373417973874549e-01 1.341073259499664105e-01 3.892905943796944879e-01
-1.927440020287581324e-01 1.433550523426572187e-01 3.852490140410256281e-01
-1.889200652512432188e-01 1.525711686131274447e-01 3.811421486053326868e-01
-1.857059866345075472e-01 1.614664433730994830e-01 3.765268506813778115e-01
-1.787968225826914170e-01 1.723521293482183914e-01 3.749518196040174667e-01
-2.173525206792789044e-01 6.014895587267044680e-02 4.558998379070812179e-01
-2.156375093689298916e-01 6.824313267415774154e-02 4.500430890120695748e-01
-2.128332862783399171e-01 7.690580800730897892e-02 4.451075980892351680e-01
