ply
format ascii 1.0
comment Created by CloudCompare v2.11.3 (Anoia)
comment Created 2/20/25 3:53 PM
obj_info Generated by CloudCompare!
element vertex 1113
property float x
property float y
property float z
property uchar red
property uchar green
property uchar blue
end_header
0.0775207 -0.00542208 0.494909 130 137 145 
0.078342 -0.00542306 0.494998 130 137 145 
0.0791657 -0.00542417 0.495099 133 140 148 
0.0799958 -0.0054257 0.495239 132 139 147 
0.0808324 -0.00542763 0.495415 131 138 146 
0.0816236 -0.00542651 0.495313 131 138 146 
0.0465906 -0.00466926 0.50085 152 159 167 
0.0473472 -0.00466332 0.500213 153 160 168 
0.0481398 -0.00466106 0.49997 157 164 172 
0.0489137 -0.0046571 0.499546 161 168 176 
0.0496832 -0.00465285 0.49909 168 175 181 
0.0504568 -0.00464912 0.49869 174 181 187 
0.051234 -0.00464584 0.498338 182 187 192 
0.0519947 -0.00464118 0.497839 186 191 196 
0.0527791 -0.00463875 0.497578 192 197 202 
0.053562 -0.00463627 0.497312 199 204 209 
0.0543444 -0.00463382 0.497048 202 207 212 
0.0551269 -0.00463144 0.496794 200 205 210 
0.05591 -0.00462919 0.496552 199 204 209 
0.0566836 -0.00462622 0.496234 198 203 208 
0.0574625 -0.00462377 0.49597 193 198 205 
0.058241 -0.00462135 0.495711 191 196 203 
0.0590174 -0.00461884 0.495442 191 196 205 
0.0598077 -0.00461746 0.495294 190 195 204 
0.0605947 -0.00461587 0.495123 190 195 204 
0.061381 -0.00461427 0.494952 191 196 205 
0.0621702 -0.00461292 0.494807 193 202 212 
0.0629541 -0.00461123 0.494625 195 204 214 
0.063755 -0.0046108 0.49458 194 204 220 
0.0645559 -0.00461039 0.494535 194 204 220 
0.0653559 -0.00460992 0.494485 193 203 219 
0.0661574 -0.00460956 0.494446 188 198 214 
0.0669565 -0.00460905 0.494392 185 195 209 
0.0677563 -0.0046086 0.494344 180 190 204 
0.0685439 -0.00460734 0.494209 174 182 197 
0.069346 -0.00460708 0.49418 166 174 189 
0.0701492 -0.00460689 0.49416 160 170 184 
0.0709516 -0.00460665 0.494135 156 166 180 
0.0717651 -0.00460714 0.494186 152 160 175 
0.072583 -0.00460789 0.494267 147 155 170 
0.0734037 -0.0046088 0.494365 140 148 163 
0.0742297 -0.00461002 0.494496 139 147 162 
0.0750297 -0.00460961 0.494452 135 144 156 
0.0758485 -0.00461036 0.494533 130 139 151 
0.0766702 -0.00461126 0.494629 131 138 146 
0.0774866 -0.00461184 0.494691 130 137 145 
0.0783045 -0.00461249 0.494761 130 137 143 
0.0791223 -0.00461312 0.494828 127 134 140 
0.0799453 -0.00461403 0.494926 126 136 143 
0.0807716 -0.00461512 0.495043 125 135 142 
0.081565 -0.00461432 0.494957 126 135 145 
0.0824536 -0.00461888 0.495446 124 133 143 
0.0833037 -0.00462121 0.495696 129 138 148 
0.0458701 -0.00385946 0.501906 150 156 167 
0.0466091 -0.00385286 0.501048 150 157 165 
0.0473638 -0.00384778 0.500387 150 157 165 
0.0481597 -0.00384616 0.500177 153 160 168 
0.0489342 -0.00384292 0.499755 156 163 171 
0.0497012 -0.0038392 0.499271 160 165 172 
0.0504745 -0.00383607 0.498865 168 173 180 
0.0512485 -0.00383311 0.498479 175 180 185 
0.052002 -0.00382872 0.497909 178 183 188 
0.0527821 -0.0038264 0.497606 186 191 196 
0.0535628 -0.00382419 0.497319 195 200 205 
0.0543475 -0.00382232 0.497077 200 205 210 
0.0551307 -0.00382041 0.496828 202 207 212 
0.0559146 -0.0038186 0.496593 203 208 213 
0.0566852 -0.00381595 0.496248 199 204 209 
0.0574656 -0.00381403 0.495998 197 202 209 
0.0582442 -0.00381204 0.495739 193 198 205 
0.0590215 -0.00381002 0.495476 192 197 204 
0.0598093 -0.00380871 0.495307 192 197 204 
0.0605946 -0.00380729 0.495122 189 194 201 
0.0613791 -0.00380586 0.494936 191 196 203 
0.0621662 -0.00380462 0.494775 193 202 212 
0.0629483 -0.00380312 0.49458 194 203 213 
0.063749 -0.00380276 0.494533 195 204 216 
0.0645497 -0.00380241 0.494487 195 204 216 
0.06535 -0.00380205 0.49444 194 204 218 
0.0661479 -0.00380155 0.494376 191 201 215 
0.0669487 -0.00380124 0.494335 189 197 212 
0.0677489 -0.0038009 0.49429 186 194 209 
0.0685386 -0.00379998 0.494171 185 189 203 
0.0693358 -0.0037995 0.494108 176 180 194 
0.0701348 -0.00379912 0.494059 170 176 189 
0.0709346 -0.00379879 0.494017 163 169 182 
0.0717416 -0.00379886 0.494025 159 165 178 
0.0725572 -0.00379937 0.494091 156 162 175 
0.073377 -0.00380009 0.494185 144 152 167 
0.0742002 -0.00380097 0.494299 140 148 163 
0.0749981 -0.00380054 0.494244 139 147 162 
0.0758172 -0.00380119 0.494328 135 143 158 
0.07664 -0.00380201 0.494435 132 138 149 
0.0774563 -0.00380249 0.494498 131 137 148 
0.0782719 -0.00380293 0.494555 130 137 143 
0.079084 -0.00380319 0.494588 128 135 141 
0.0798986 -0.00380356 0.494637 126 136 143 
0.0807194 -0.00380423 0.494723 126 136 143 
0.0815113 -0.00380352 0.494632 125 134 144 
0.0823545 -0.00380521 0.494851 125 134 144 
0.0832454 -0.00380904 0.495349 128 137 147 
0.0459115 -0.00304256 0.502358 149 156 164 
0.0466676 -0.00303843 0.501678 149 156 164 
0.0474351 -0.00303518 0.501141 149 156 164 
0.0481806 -0.00303066 0.500394 153 160 166 
0.0489548 -0.00302806 0.499965 153 160 166 
0.0497274 -0.00302545 0.499534 155 162 168 
0.0505029 -0.0030231 0.499146 159 166 172 
0.051287 -0.00302133 0.498853 165 170 179 
0.0520226 -0.0030168 0.498105 174 179 188 
0.0528007 -0.00301484 0.497782 172 177 184 
0.0535808 -0.00301305 0.497486 184 189 196 
0.0543595 -0.00301124 0.497187 191 198 204 
0.0551382 -0.00300947 0.496896 195 202 208 
0.0559204 -0.00300795 0.496645 202 209 215 
0.0566968 -0.00300616 0.496349 202 209 215 
0.0574754 -0.00300454 0.496082 200 205 212 
0.0582533 -0.00300293 0.495816 197 202 209 
0.0590332 -0.00300146 0.495574 195 200 207 
0.0598134 -0.00300006 0.495341 193 198 205 
0.0605972 -0.00299886 0.495143 192 197 204 
0.0613776 -0.00299753 0.494924 191 196 203 
0.0621631 -0.00299648 0.494751 192 198 209 
0.0629559 -0.0029958 0.494639 195 201 212 
0.0637537 -0.00299538 0.494569 193 202 214 
0.0645519 -0.00299499 0.494504 195 204 216 
0.0653522 -0.0029947 0.494457 195 204 216 
0.0661407 -0.00299388 0.494322 195 204 216 
0.0669373 -0.00299345 0.49425 195 201 214 
0.0677324 -0.00299296 0.49417 192 198 211 
0.0685264 -0.00299243 0.494082 188 194 207 
0.0693215 -0.00299197 0.494006 184 190 203 
0.0701159 -0.00299148 0.493925 172 176 188 
0.0709157 -0.00299123 0.493885 175 179 191 
0.0717115 -0.00299083 0.493817 166 172 185 
0.0725269 -0.00299124 0.493885 157 163 176 
0.0733467 -0.00299182 0.493981 150 158 175 
0.074164 -0.00299229 0.494058 145 153 170 
0.0749822 -0.00299278 0.494139 140 148 163 
0.0757952 -0.00299305 0.494185 136 144 159 
0.0766076 -0.0029933 0.494226 133 142 154 
0.0774204 -0.00299356 0.494268 132 141 153 
0.0782304 -0.0029937 0.494292 131 137 148 
0.0790444 -0.002994 0.494341 128 134 145 
0.0798604 -0.00299436 0.494401 124 134 141 
0.080674 -0.00299463 0.494445 123 133 140 
0.0815065 -0.00299558 0.494602 124 134 141 
0.0823771 -0.00299791 0.494986 125 135 142 
0.0832205 -0.0029992 0.4952 126 136 143 
0.0840366 -0.0029995 0.49525 128 138 145 
0.0467053 -0.00222096 0.502083 148 155 163 
0.0474697 -0.00221841 0.501506 148 155 163 
0.0482247 -0.00221551 0.500852 150 157 165 
0.0489877 -0.00221307 0.500301 152 159 167 
0.0497572 -0.002211 0.499833 154 161 167 
0.0505302 -0.00220916 0.499415 155 162 168 
0.0512703 -0.00220595 0.498691 162 167 176 
0.0520402 -0.00220411 0.498274 167 172 181 
0.0528151 -0.00220253 0.497917 167 174 182 
0.053596 -0.00220125 0.497627 181 188 196 
0.054373 -0.00219984 0.49731 182 192 197 
0.0551495 -0.00219846 0.496998 189 199 204 
0.0559269 -0.00219716 0.496703 196 203 209 
0.0567049 -0.00219591 0.496421 199 206 212 
0.0574809 -0.00219462 0.49613 202 207 214 
0.0582563 -0.00219335 0.495841 199 204 211 
0.0590364 -0.00219228 0.4956 198 203 210 
0.0598169 -0.00219126 0.49537 196 201 208 
0.0606011 -0.0021904 0.495175 192 197 204 
0.0613829 -0.00218948 0.494966 191 196 203 
0.0621667 -0.00218865 0.494779 192 196 208 
0.0629591 -0.00218814 0.494664 193 197 209 
0.0637568 -0.00218783 0.494593 195 201 214 
0.0645547 -0.00218753 0.494526 196 202 215 
0.0653539 -0.00218728 0.494469 197 203 216 
0.0661404 -0.00218662 0.49432 199 205 218 
0.0669346 -0.00218622 0.49423 196 202 215 
0.0677267 -0.00218577 0.494128 195 201 214 
0.0685184 -0.00218531 0.494025 192 198 211 
0.0693116 -0.00218491 0.493935 190 196 209 
0.0701061 -0.00218457 0.493857 183 189 200 
0.0709046 -0.00218435 0.493808 181 187 198 
0.0716968 -0.00218395 0.493716 173 179 192 
0.0725127 -0.00218427 0.493789 168 174 187 
0.073329 -0.00218459 0.493861 159 164 180 
0.0741457 -0.00218492 0.493936 152 157 173 
0.0749599 -0.00218517 0.493992 146 154 171 
0.0757704 -0.0021853 0.494023 142 150 167 
0.0765805 -0.00218543 0.494051 137 145 160 
0.0773918 -0.00218558 0.494085 133 141 156 
0.0782022 -0.00218571 0.494114 132 141 153 
0.0790179 -0.00218598 0.494175 128 137 149 
0.0798348 -0.00218627 0.494242 125 134 144 
0.0806513 -0.00218655 0.494305 125 134 144 
0.0814723 -0.00218695 0.494395 125 134 144 
0.0823004 -0.00218753 0.494525 125 134 144 
0.0831634 -0.00218901 0.49486 125 135 142 
0.0839777 -0.0021892 0.494903 128 138 145 
0.0848186 -0.00219006 0.495099 128 137 147 
0.0475024 -0.00140038 0.501852 148 155 163 
0.0482703 -0.00139891 0.501325 149 156 164 
0.0490311 -0.00139729 0.500744 149 156 164 
0.0497955 -0.00139582 0.500218 153 160 168 
0.0505575 -0.00139433 0.499685 154 161 169 
0.0512929 -0.00139217 0.498911 161 168 176 
0.0520604 -0.00139094 0.498468 164 171 179 
0.0528324 -0.00138986 0.498081 166 173 181 
0.0536084 -0.00138891 0.497742 171 178 186 
0.0543845 -0.001388 0.497416 181 188 194 
0.0551606 -0.00138711 0.497098 182 189 195 
0.0559357 -0.00138623 0.49678 192 197 204 
0.0567096 -0.00138534 0.496462 198 203 210 
0.057486 -0.00138454 0.496174 199 204 211 
0.058263 -0.00138377 0.495898 202 207 214 
0.0590401 -0.00138302 0.495632 202 207 214 
0.0598192 -0.00138235 0.495389 198 203 210 
0.060604 -0.00138182 0.495199 195 200 207 
0.0613878 -0.00138128 0.495007 192 197 204 
0.062171 -0.00138074 0.494813 191 195 207 
0.0629619 -0.00138038 0.494686 191 195 207 
0.0637595 -0.00138018 0.494614 192 198 211 
0.064557 -0.00137999 0.494543 196 202 215 
0.0653553 -0.00137981 0.49448 196 202 215 
0.0661396 -0.00137935 0.494314 197 203 216 
0.066932 -0.00137906 0.494211 197 203 216 
0.0677239 -0.00137877 0.494108 198 204 217 
0.0685081 -0.00137833 0.493951 197 203 216 
0.0692995 -0.00137805 0.493849 194 200 213 
0.0700955 -0.00137786 0.493782 188 197 209 
0.0708956 -0.00137776 0.493745 182 191 203 
0.0716855 -0.00137746 0.493639 179 188 200 
0.0724998 -0.00137764 0.493701 172 181 193 
0.0733134 -0.00137779 0.493757 162 170 185 
0.0741251 -0.00137791 0.493799 153 161 176 
0.0749384 -0.00137805 0.493851 151 159 174 
0.0757456 -0.00137808 0.493861 145 153 168 
0.0765542 -0.00137814 0.493881 144 152 167 
0.0773673 -0.00137827 0.493929 139 147 162 
0.0781748 -0.00137831 0.493941 139 148 160 
0.0789925 -0.00137851 0.494016 135 144 156 
0.079811 -0.00137873 0.494095 126 135 145 
0.080627 -0.00137891 0.494157 125 134 144 
0.0814413 -0.00137905 0.494207 125 134 144 
0.0822612 -0.00137928 0.494289 124 133 143 
0.0831061 -0.00137992 0.49452 124 133 143 
0.083918 -0.00138001 0.494551 128 137 147 
0.0847602 -0.00138059 0.494758 126 135 145 
0.0856082 -0.00138125 0.494996 128 137 147 
0.0483248 -0.000580872 0.501891 148 155 163 
0.0490829 -0.000580157 0.501274 147 154 162 
0.0498351 -0.000579396 0.500616 150 157 165 
0.0505507 -0.000578241 0.499618 152 159 167 
0.0513197 -0.000577723 0.499171 153 160 168 
0.0520833 -0.000577163 0.498687 157 164 172 
0.0528516 -0.000576671 0.498261 162 169 177 
0.0536209 -0.000576204 0.497859 166 173 181 
0.0543962 -0.000575815 0.497522 171 178 184 
0.0551703 -0.000575425 0.497185 177 184 190 
0.0559432 -0.000575034 0.496847 184 189 196 
0.0567118 -0.00057461 0.496481 195 200 207 
0.05749 -0.000574294 0.496208 198 203 210 
0.0582662 -0.000573967 0.495926 202 207 214 
0.0590423 -0.000573648 0.49565 202 207 212 
0.0598207 -0.00057336 0.495401 200 205 210 
0.0606069 -0.000573154 0.495223 198 205 211 
0.0613908 -0.000572931 0.49503 194 201 207 
0.0621754 -0.000572721 0.494849 191 197 208 
0.0629657 -0.000572568 0.494716 190 196 207 
0.0637625 -0.000572476 0.494637 191 197 208 
0.0645594 -0.000572388 0.494561 192 198 209 
0.0653576 -0.000572314 0.494497 195 201 214 
0.0661403 -0.000572108 0.494319 196 202 215 
0.0669299 -0.000571965 0.494196 197 203 216 
0.0677208 -0.000571837 0.494085 197 203 216 
0.0684954 -0.000571575 0.493859 198 204 217 
0.0692898 -0.000571484 0.49378 198 204 217 
0.0700866 -0.000571414 0.493719 192 201 213 
0.0708867 -0.000571372 0.493683 187 196 208 
0.0716765 -0.000571248 0.493576 182 191 203 
0.0724887 -0.000571305 0.493625 180 189 201 
0.0732989 -0.000571344 0.493659 172 180 195 
0.0741086 -0.000571379 0.493689 164 172 187 
0.074919 -0.000571417 0.493722 155 163 178 
0.0757231 -0.000571408 0.493715 152 160 175 
0.0765308 -0.000571426 0.49373 147 155 170 
0.0773415 -0.000571466 0.493764 145 153 168 
0.0781486 -0.000571478 0.493775 142 151 163 
0.0789684 -0.000571583 0.493865 140 149 161 
0.0797892 -0.000571692 0.49396 137 146 156 
0.0806077 -0.000571783 0.494038 128 137 147 
0.0814166 -0.000571804 0.494057 126 135 145 
0.0822277 -0.000571841 0.494088 125 134 144 
0.0830532 -0.000571975 0.494205 125 134 144 
0.083859 -0.000571974 0.494203 128 137 147 
0.0846994 -0.000572205 0.494403 126 135 145 
0.0855447 -0.000572465 0.494628 126 135 145 
0.0863984 -0.000572776 0.494897 131 138 146 
0.0491089 0.000238579 0.501539 149 156 162 
0.0498695 0.000238305 0.500962 149 156 164 
0.0505795 0.000237801 0.499903 150 157 165 
0.0513362 0.000237529 0.499332 153 160 168 
0.0520986 0.000237292 0.498833 154 161 169 
0.0528677 0.000237093 0.498413 157 164 172 
0.0536497 0.000236956 0.498126 160 167 175 
0.0544196 0.00023677 0.497736 165 170 177 
0.0551897 0.000236591 0.49736 174 179 186 
0.0559625 0.000236429 0.497018 176 183 191 
0.0567359 0.000236274 0.496692 182 189 197 
0.0575072 0.000236114 0.496357 195 202 208 
0.0582757 0.000235948 0.496007 196 203 209 
0.0590513 0.000235814 0.495726 201 208 214 
0.0598406 0.000235738 0.495566 202 209 215 
0.0606269 0.000235652 0.495386 199 206 212 
0.0614122 0.000235565 0.495203 196 203 209 
0.0622023 0.000235498 0.495062 194 201 207 
0.0629815 0.000235393 0.49484 192 199 205 
0.0637762 0.000235347 0.494743 191 198 206 
0.0645682 0.000235292 0.494629 191 198 206 
0.0653607 0.000235241 0.494521 194 200 211 
0.0661574 0.000235206 0.494446 196 202 213 
0.066939 0.000235118 0.494263 196 202 213 
0.0677002 0.000234962 0.493935 199 205 216 
0.0684912 0.000234912 0.493829 198 204 215 
0.0692801 0.000234856 0.493711 198 204 215 
0.0700718 0.00023481 0.493615 193 202 214 
0.0708616 0.000234759 0.493508 190 199 211 
0.0716575 0.000234729 0.493445 188 196 211 
0.0724643 0.000234736 0.493459 183 191 206 
0.0732675 0.00023473 0.493448 181 186 202 
0.0740799 0.000234754 0.493497 171 176 192 
0.0748747 0.000234722 0.493431 166 171 187 
0.0756828 0.000234732 0.493452 159 164 180 
0.076493 0.000234749 0.493487 153 161 176 
0.077297 0.000234746 0.49348 150 158 173 
0.0781189 0.000234797 0.493587 145 153 168 
0.07893 0.000234815 0.493625 144 152 167 
0.0797425 0.000234836 0.49367 135 144 156 
0.0805584 0.000234868 0.493736 129 138 150 
0.0813567 0.000234847 0.493693 130 136 147 
0.082173 0.000234879 0.493759 127 133 144 
0.0829946 0.000234925 0.493856 128 134 145 
0.0838345 0.000235021 0.494058 127 133 144 
0.0846679 0.000235097 0.494219 125 131 142 
0.0855092 0.000235194 0.494423 127 133 144 
0.086354 0.000235299 0.494642 128 135 143 
0.0871444 0.000235254 0.494549 130 137 145 
0.0498562 0.00105612 0.500828 152 159 165 
0.0506294 0.00105521 0.500396 150 157 163 
0.0513777 0.00105382 0.499736 151 156 163 
0.0521344 0.00105264 0.499176 154 159 166 
0.0528987 0.00105165 0.498705 155 160 167 
0.0536741 0.0010509 0.498352 157 162 169 
0.0544456 0.00105011 0.497974 162 167 174 
0.0552104 0.0010492 0.497546 167 172 179 
0.05598 0.00104842 0.497174 170 177 185 
0.0567559 0.00104777 0.496867 176 183 191 
0.0575248 0.00104701 0.496509 185 192 200 
0.0582931 0.00104627 0.496155 192 199 207 
0.0590638 0.00104559 0.495831 198 205 211 
0.0598536 0.00104525 0.495674 202 209 215 
0.0606401 0.00104488 0.495494 201 208 214 
0.0614258 0.00104449 0.495313 198 205 211 
0.0622126 0.00104414 0.495144 197 204 210 
0.0629941 0.00104371 0.494939 195 202 208 
0.0637874 0.00104348 0.49483 192 199 205 
0.0645783 0.00104321 0.494706 191 198 204 
0.0653688 0.00104295 0.494582 190 197 205 
0.066164 0.00104277 0.494496 192 199 207 
0.0669454 0.00104238 0.49431 195 202 210 
0.0677043 0.00104165 0.493964 197 204 212 
0.0684891 0.00104133 0.493814 194 201 209 
0.0692774 0.00104107 0.493691 198 205 213 
0.0700641 0.0010408 0.49356 194 203 215 
0.0708526 0.00104055 0.493445 193 202 214 
0.0716483 0.00104042 0.493383 190 198 213 
0.0724503 0.00104038 0.493364 187 195 210 
0.0732546 0.00104038 0.49336 183 191 206 
0.0740628 0.00104042 0.493383 178 186 201 
0.0748544 0.00104024 0.493297 175 178 195 
0.0756635 0.0010403 0.493326 164 167 184 
0.0764711 0.00104034 0.493345 160 165 181 
0.0772761 0.00104035 0.493347 156 161 177 
0.0780931 0.00104051 0.493425 151 159 174 
0.0788989 0.00104052 0.493431 140 148 163 
0.0797039 0.00104053 0.493432 137 145 160 
0.0805165 0.00104063 0.493479 132 140 155 
0.0813201 0.00104061 0.493471 128 137 149 
0.0821375 0.00104077 0.493546 126 135 147 
0.0829673 0.00104108 0.493694 126 135 147 
0.0837975 0.00104139 0.493841 124 133 145 
0.0846285 0.0010417 0.49399 126 132 143 
0.0854622 0.00104204 0.494151 127 133 144 
0.0863018 0.00104245 0.494343 127 134 142 
0.0870931 0.00104227 0.494258 127 134 142 
0.087927 0.0010426 0.494414 126 136 143 
0.0506841 0.00187441 0.500937 151 156 163 
0.0514298 0.00187182 0.500243 150 155 162 
0.0521782 0.00186939 0.499595 151 156 163 
0.0529304 0.00186718 0.499004 153 158 165 
0.0537016 0.0018657 0.498608 153 158 165 
0.0544685 0.00186411 0.498183 155 162 168 
0.0552337 0.00186251 0.497757 161 168 174 
0.056002 0.00186106 0.497369 164 171 179 
0.0567732 0.00185975 0.497018 171 178 186 
0.0575426 0.00185842 0.496662 182 189 197 
0.0583108 0.00185708 0.496306 187 194 202 
0.0590766 0.00185571 0.495939 192 197 204 
0.0598651 0.00185508 0.495769 199 204 211 
0.0606522 0.00185442 0.495593 202 207 214 
0.0614373 0.00185371 0.495405 203 208 215 
0.0622239 0.00185308 0.495234 200 205 212 
0.0630052 0.0018523 0.495026 199 204 211 
0.0637979 0.00185187 0.494912 193 198 205 
0.0645901 0.00185144 0.494797 193 198 205 
0.0653785 0.00185091 0.494655 191 198 206 
0.0661699 0.00185048 0.49454 192 199 207 
0.066951 0.00184977 0.494352 194 201 209 
0.0677076 0.00184841 0.493989 195 202 210 
0.0684868 0.0018477 0.493797 192 199 207 
0.0692738 0.00184721 0.493666 197 204 212 
0.0700602 0.00184671 0.493533 197 203 216 
0.0708441 0.00184616 0.493386 197 203 216 
0.0716363 0.00184584 0.4933 194 202 217 
0.0724353 0.00184569 0.493261 193 201 216 
0.0732398 0.00184569 0.493261 186 194 209 
0.0740476 0.00184577 0.493283 182 190 205 
0.0748361 0.00184537 0.493176 177 182 198 
0.0756442 0.00184546 0.4932 173 178 194 
0.0764521 0.00184555 0.493222 167 172 188 
0.0772545 0.0018455 0.493209 163 168 184 
0.0780637 0.00184561 0.493239 154 162 177 
0.0788649 0.00184553 0.493218 146 154 169 
0.0796697 0.00184554 0.49322 141 151 165 
0.0804802 0.00184568 0.493257 135 145 159 
0.0812827 0.00184563 0.493244 131 140 150 
0.0821019 0.00184596 0.493332 130 139 149 
0.0829374 0.00184665 0.493516 129 138 148 
0.0837642 0.00184713 0.493644 126 135 145 
0.0845883 0.00184754 0.493755 125 134 144 
0.0854178 0.00184806 0.493894 124 133 143 
0.0862503 0.00184864 0.494049 123 132 142 
0.0870423 0.00184834 0.49397 125 134 144 
0.0878737 0.00184888 0.494114 125 134 144 
0.0887158 0.00184964 0.494316 125 134 144 
0.0514885 0.00269181 0.500813 152 154 160 
0.0522253 0.00268769 0.500046 152 154 160 
0.0529695 0.00268407 0.499373 150 155 160 
0.0537319 0.00268147 0.498889 150 155 160 
0.0544975 0.0026791 0.498449 152 159 165 
0.0552607 0.00267669 0.498 157 164 170 
0.0560267 0.00267448 0.497589 161 168 174 
0.0567911 0.00267226 0.497175 166 173 179 
0.0575606 0.00267033 0.496818 175 180 189 
0.0583264 0.00266829 0.496438 179 184 193 
0.059091 0.00266625 0.496059 185 190 197 
0.0598763 0.0026652 0.495862 192 197 204 
0.0606633 0.00266424 0.495684 199 204 211 
0.0614486 0.00266323 0.495496 202 207 214 
0.0622376 0.00266241 0.495343 202 207 216 
0.0630176 0.00266123 0.495124 203 208 217 
0.0638092 0.00266056 0.495 197 202 211 
0.064601 0.00265992 0.49488 195 200 209 
0.0653867 0.00265905 0.494718 192 199 207 
0.066176 0.00265834 0.494586 191 198 206 
0.066957 0.00265732 0.494396 192 199 207 
0.0677125 0.00265532 0.494024 194 201 209 
0.0684868 0.0026541 0.493797 195 201 212 
0.0692698 0.00265324 0.493637 196 202 213 
0.0700539 0.00265244 0.493489 196 204 219 
0.0708341 0.00265151 0.493316 196 204 219 
0.0716213 0.00265087 0.493196 196 204 219 
0.0724223 0.00265074 0.493173 195 203 218 
0.0732257 0.00265071 0.493166 189 199 215 
0.0740322 0.00265078 0.49318 186 196 212 
0.0748178 0.00265011 0.493056 183 191 206 
0.0756261 0.00265026 0.493082 178 186 201 
0.0764331 0.00265035 0.4931 175 180 196 
0.0772338 0.00265023 0.493077 166 171 187 
0.078034 0.00265009 0.493051 156 161 177 
0.07883 0.00264981 0.493 152 157 173 
0.0796328 0.00264977 0.492992 145 155 171 
0.0804386 0.00264982 0.493002 139 149 165 
0.0812436 0.00264985 0.493007 136 145 157 
0.0820682 0.00265051 0.49313 130 139 151 
0.0829108 0.00265173 0.493357 129 138 148 
0.0837359 0.00265238 0.493477 128 137 147 
0.0845547 0.00265282 0.493559 125 134 144 
0.0853779 0.00265338 0.493664 125 134 144 
0.0862035 0.00265401 0.49378 124 133 143 
0.0869951 0.00265359 0.493702 123 132 142 
0.0878229 0.00265427 0.493828 122 131 141 
0.0886543 0.00265504 0.493973 123 132 142 
0.0894935 0.00265604 0.494158 126 136 143 
0.0522432 0.0035055 0.500218 152 154 160 
0.0530069 0.00350204 0.499725 151 153 161 
0.0537534 0.00349758 0.499088 152 154 162 
0.0545054 0.0034936 0.498521 155 160 167 
0.055264 0.00349016 0.498029 160 165 172 
0.0560285 0.00348718 0.497604 156 163 171 
0.0568144 0.0034856 0.497379 161 168 176 
0.0575779 0.00348271 0.496967 164 169 178 
0.0583402 0.00347983 0.496556 172 177 186 
0.0591081 0.00347736 0.496203 178 183 190 
0.0598976 0.0034762 0.496038 188 193 200 
0.0606813 0.00347475 0.495831 193 198 207 
0.061463 0.00347322 0.495613 198 203 212 
0.0622495 0.003472 0.495438 203 208 217 
0.0630455 0.00347133 0.495343 204 209 218 
0.0638352 0.00347034 0.495201 204 209 218 
0.0646258 0.00346942 0.49507 197 202 211 
0.0654185 0.00346864 0.494958 194 201 209 
0.0661957 0.00346705 0.494733 192 199 207 
0.0669675 0.00346524 0.494473 192 199 207 
0.0676975 0.00346132 0.493915 192 199 207 
0.0685034 0.00346134 0.493917 194 201 209 
0.0692686 0.00345932 0.493628 195 202 210 
0.0700396 0.00345763 0.493388 198 204 217 
0.0708198 0.00345643 0.493217 198 204 217 
0.0715998 0.00345525 0.493048 197 205 220 
0.0724005 0.00345508 0.493024 195 203 218 
0.0732055 0.00345512 0.49303 192 202 218 
0.0740058 0.00345494 0.493004 188 198 214 
0.0748115 0.00345501 0.493014 187 197 211 
0.075615 0.00345498 0.49301 182 192 206 
0.0764114 0.00345463 0.49296 176 185 197 
0.0772181 0.00345475 0.492977 171 180 192 
0.0780093 0.00345418 0.492895 166 171 187 
0.078808 0.00345395 0.492862 157 162 178 
0.0796159 0.00345412 0.492887 152 160 175 
0.0804144 0.00345389 0.492854 146 154 169 
0.081227 0.00345425 0.492906 139 147 162 
0.0820408 0.00345467 0.492965 131 139 154 
0.0828694 0.00345569 0.493111 129 137 152 
0.0836851 0.00345616 0.493178 128 136 151 
0.0845026 0.0034567 0.493254 126 135 147 
0.0853206 0.00345724 0.493332 124 133 145 
0.0861398 0.00345782 0.493415 126 132 143 
0.0869641 0.0034586 0.493526 125 131 142 
0.0877917 0.00345949 0.493653 122 131 141 
0.0886271 0.00346067 0.493821 123 132 142 
0.0894636 0.00346187 0.493993 124 134 141 
0.0902715 0.00346195 0.494005 129 139 146 
0.0530413 0.00432093 0.50005 150 155 162 
0.053804 0.00431668 0.499558 151 156 163 
0.0545458 0.00431091 0.498891 153 158 165 
0.0553013 0.00430637 0.498365 153 158 165 
0.0560634 0.00430248 0.497914 154 159 166 
0.0568449 0.00430016 0.497647 156 161 168 
0.0576107 0.00429673 0.49725 162 169 177 
0.0583698 0.00429291 0.496807 167 174 182 
0.059133 0.00428949 0.496412 174 179 188 
0.0599248 0.00428821 0.496264 178 183 192 
0.0607038 0.00428606 0.496015 188 193 202 
0.0614826 0.00428395 0.49577 196 201 210 
0.0622629 0.004282 0.495545 200 205 214 
0.0630593 0.0042812 0.495452 203 208 217 
0.0638511 0.0042801 0.495325 206 211 218 
0.0646417 0.00427895 0.495192 203 208 215 
0.0654338 0.00427793 0.495074 201 203 211 
0.0662123 0.00427606 0.494857 197 199 207 
0.0669809 0.0042736 0.494572 192 196 208 
0.0677052 0.0042684 0.493971 192 196 208 
0.0685075 0.00426819 0.493946 194 200 211 
0.0692691 0.00426547 0.493632 195 201 212 
0.070036 0.00426314 0.493363 196 202 215 
0.0708138 0.00426152 0.493175 198 204 217 
0.071587 0.00425966 0.49296 197 205 220 
0.0723934 0.00425981 0.492976 196 204 219 
0.073198 0.00425983 0.492979 196 206 220 
0.0739973 0.00425956 0.492947 193 203 217 
0.0748066 0.00425986 0.492982 189 199 213 
0.0756042 0.00425949 0.49294 186 196 210 
0.0764053 0.00425933 0.492921 184 195 206 
0.0772106 0.0042594 0.492929 178 189 200 
0.0779976 0.00425847 0.492821 174 183 195 
0.0788017 0.00425848 0.492823 166 175 187 
0.079607 0.00425856 0.492832 159 167 182 
0.080407 0.00425835 0.492808 151 159 174 
0.0812155 0.0042586 0.492837 144 154 170 
0.0820241 0.00425884 0.492865 138 148 164 
0.0828404 0.00425948 0.492938 129 141 155 
0.0836553 0.00426004 0.493003 127 139 153 
0.084472 0.00426067 0.493076 127 138 147 
0.0852897 0.00426134 0.493153 125 136 145 
0.0861097 0.00426211 0.493243 127 134 142 
0.0869267 0.00426272 0.493314 125 132 140 
0.0877569 0.00426396 0.493458 122 132 139 
0.0885889 0.00426527 0.493609 121 131 138 
0.0894255 0.00426677 0.493782 124 134 141 
0.0902332 0.00426688 0.493795 126 136 143 
0.0910499 0.00426741 0.493856 125 135 142 
0.0539299 0.0051445 0.500728 153 158 165 
0.0546704 0.00513733 0.50003 151 156 163 
0.0553501 0.00512475 0.498805 151 156 163 
0.0560992 0.00511887 0.498232 151 156 163 
0.0568766 0.0051157 0.497924 154 159 166 
0.0576409 0.00511145 0.49751 159 166 172 
0.0584002 0.00510689 0.497067 161 168 174 
0.0591614 0.00510261 0.49665 164 171 179 
0.059948 0.00510061 0.496455 174 181 189 
0.0607254 0.0050979 0.496191 181 188 196 
0.0615017 0.00509516 0.495925 184 191 199 
0.062277 0.00509241 0.495657 193 198 207 
0.0630726 0.00509137 0.495556 202 207 216 
0.0638658 0.00509017 0.495439 204 209 216 
0.064656 0.00508876 0.495302 205 210 217 
0.065448 0.00508752 0.495181 206 208 216 
0.066226 0.00508524 0.494959 201 203 211 
0.0669553 0.00507932 0.494383 195 199 211 
0.0677185 0.00507609 0.494068 192 196 208 
0.0685077 0.00507484 0.493948 193 197 209 
0.0692708 0.00507173 0.493644 193 197 209 
0.0700351 0.00506877 0.493356 194 200 213 
0.0708073 0.00506645 0.49313 197 203 216 
0.0715799 0.00506419 0.492911 196 205 217 
0.0723862 0.00506436 0.492927 195 204 216 
0.07319 0.00506434 0.492926 195 206 217 
0.0739912 0.00506415 0.492907 195 206 217 
0.0747982 0.00506436 0.492927 193 203 217 
0.0755966 0.00506398 0.49289 189 199 213 
0.0763966 0.00506372 0.492865 189 198 208 
0.0772017 0.00506379 0.492872 181 190 200 
0.0779924 0.00506294 0.492788 176 185 197 
0.0787954 0.00506288 0.492783 171 180 192 
0.079599 0.00506288 0.492783 164 172 187 
0.0803988 0.00506262 0.492758 155 163 178 
0.0812025 0.00506262 0.492757 146 156 170 
0.0820071 0.00506267 0.492763 143 153 167 
0.0828171 0.00506305 0.4928 134 146 160 
0.0836262 0.00506338 0.492831 130 142 156 
0.0844421 0.00506409 0.492901 131 142 151 
0.0852589 0.00506486 0.492975 127 138 147 
0.0860794 0.00506583 0.49307 128 138 145 
0.0868954 0.00506651 0.493136 124 134 141 
0.0877223 0.00506781 0.493263 121 133 139 
0.0885521 0.00506925 0.493403 120 132 138 
0.0893879 0.00507102 0.493575 120 134 140 
0.0901995 0.00507138 0.49361 121 135 141 
0.0910144 0.00507193 0.493663 122 134 140 
0.0918325 0.00507263 0.493732 125 137 143 
0.0546857 0.00595559 0.50017 151 156 163 
0.0554271 0.00594759 0.499499 153 158 165 
0.0561857 0.00594166 0.499001 151 156 163 
0.0569354 0.00593496 0.498438 151 156 163 
0.0576897 0.00592893 0.497932 153 160 168 
0.0584461 0.00592327 0.497457 154 161 169 
0.0592096 0.00591849 0.497055 161 168 176 
0.060014 0.00591787 0.497002 166 173 181 
0.0607465 0.00591026 0.496363 178 180 188 
0.0615188 0.00590668 0.496063 184 186 194 
0.0622915 0.00590322 0.495773 188 193 202 
0.0630852 0.00590182 0.495655 195 200 209 
0.0638789 0.00590046 0.49554 200 205 210 
0.0646702 0.00589891 0.495411 204 209 214 
0.0654633 0.00589756 0.495297 205 210 215 
0.0662423 0.00589499 0.495081 202 207 212 
0.0669677 0.00588777 0.494475 198 203 210 
0.0677264 0.00588361 0.494126 196 201 208 
0.0685064 0.00588138 0.493938 195 200 209 
0.0692718 0.00587797 0.493652 192 197 206 
0.0700354 0.00587448 0.493359 194 200 211 
0.0708058 0.00587163 0.493119 194 200 211 
0.0715741 0.00586867 0.492871 193 202 212 
0.0723789 0.00586875 0.492877 195 204 214 
0.0731836 0.00586881 0.492882 197 206 218 
0.0739845 0.00586857 0.492862 197 206 218 
0.0747888 0.0058686 0.492865 196 204 219 
0.07559 0.00586838 0.492847 193 201 216 
0.0763917 0.00586822 0.492833 192 200 215 
0.0771963 0.00586827 0.492838 189 197 212 
0.0779946 0.00586786 0.492803 183 192 204 
0.078795 0.0058676 0.492781 178 187 199 
0.0795947 0.0058673 0.492756 168 177 189 
0.0803968 0.00586718 0.492746 159 168 180 
0.0811896 0.00586639 0.492679 152 162 176 
0.08199 0.00586616 0.49266 146 156 170 
0.0827924 0.00586608 0.492653 144 155 166 
0.0835962 0.0058661 0.492655 141 152 163 
0.0844132 0.00586702 0.492732 135 146 157 
0.085229 0.00586786 0.492803 132 143 154 
0.0860502 0.00586904 0.492902 128 137 147 
0.0868668 0.0058699 0.492974 124 133 143 
0.0876946 0.00587149 0.493107 122 133 142 
0.0885245 0.00587318 0.49325 120 131 140 
0.0893593 0.00587517 0.493417 120 134 140 
0.0901702 0.00587557 0.49345 121 135 141 
0.0909818 0.005876 0.493487 122 134 140 
0.0917915 0.0058763 0.493512 123 135 141 
0.0925977 0.00587639 0.493519 124 136 142 
0.0554851 0.00677039 0.500022 153 158 163 
0.0562316 0.00676208 0.499408 151 156 163 
0.0569894 0.00675534 0.498911 151 156 163 
0.0577285 0.00674662 0.498267 152 159 167 
0.0584837 0.00673999 0.497777 154 161 169 
0.059244 0.00673412 0.497344 159 166 174 
0.0600448 0.00673295 0.497257 162 169 177 
0.0608114 0.00672803 0.496894 172 174 182 
0.0615791 0.00672336 0.496549 179 181 189 
0.0623513 0.00671929 0.496248 182 187 196 
0.0631444 0.00671755 0.49612 189 194 203 
0.0639265 0.00671471 0.49591 194 201 207 
0.0647113 0.0067122 0.495725 198 205 211 
0.0654945 0.00670961 0.495533 204 209 214 
0.0662612 0.0067054 0.495223 204 209 214 
0.0669774 0.00669625 0.494547 200 205 210 
0.0677447 0.00669235 0.494259 199 204 209 
0.0685214 0.00668947 0.494046 195 200 207 
0.0692816 0.00668507 0.493721 193 198 205 
0.0700413 0.00668073 0.4934 192 199 207 
0.0708075 0.00667709 0.493131 192 199 207 
0.0715955 0.00667556 0.493019 194 201 209 
0.0723934 0.00667498 0.492976 196 203 211 
0.0731933 0.0066746 0.492947 198 204 215 
0.073997 0.00667457 0.492945 198 204 215 
0.0747722 0.00667199 0.492755 197 205 220 
0.0755733 0.00667176 0.492738 196 204 219 
0.0763761 0.00667168 0.492732 195 203 218 
0.077172 0.006671 0.492682 192 200 215 
0.07799 0.00667223 0.492773 190 195 211 
0.0787925 0.00667213 0.492766 184 189 205 
0.0795902 0.00667162 0.492728 180 186 199 
0.0803939 0.00667162 0.492728 173 179 192 
0.0811872 0.00667077 0.492665 160 170 184 
0.0819818 0.00667004 0.492611 153 163 177 
0.0827676 0.00666861 0.492506 151 162 173 
0.0835903 0.00667016 0.49262 146 157 168 
0.0843978 0.00667047 0.492643 141 152 163 
0.0852132 0.0066714 0.492711 135 146 157 
0.0860299 0.00667241 0.492786 133 139 152 
0.0868419 0.00667304 0.492833 130 136 149 
0.087664 0.00667443 0.492935 125 134 144 
0.0884845 0.00667567 0.493027 123 132 142 
0.0893038 0.0066768 0.493111 121 134 143 
0.0901377 0.00667899 0.493272 121 134 143 
0.090947 0.00667934 0.493298 119 132 141 
0.0917607 0.00668 0.493346 120 133 142 
0.092577 0.00668084 0.493408 124 135 144 
0.0933993 0.00668209 0.493501 125 136 145 
0.0562772 0.00758379 0.499813 152 154 162 
0.0570501 0.00757816 0.499443 153 155 163 
0.0577915 0.00756857 0.49881 155 157 165 
0.0585347 0.00755948 0.498211 155 157 165 
0.0592798 0.00755088 0.497644 156 161 170 
0.0600773 0.00754908 0.497526 161 166 175 
0.0608468 0.00754387 0.497183 164 169 178 
0.0616107 0.00753812 0.496804 171 176 185 
0.0623789 0.00753302 0.496468 173 180 188 
0.063169 0.00753068 0.496313 183 190 198 
0.063949 0.00752721 0.496085 187 194 202 
0.0647303 0.00752396 0.495871 195 202 210 
0.0655084 0.00752044 0.495638 201 208 212 
0.0662333 0.00751096 0.495014 202 209 213 
0.0670005 0.00750646 0.494717 203 210 214 
0.0677627 0.0075015 0.49439 201 208 212 
0.0685449 0.00749886 0.494216 198 205 209 
0.0693083 0.00749424 0.493912 195 202 206 
0.0700689 0.00748943 0.493595 192 199 205 
0.070829 0.00748467 0.493281 192 199 205 
0.071614 0.00748262 0.493146 192 199 207 
0.0723988 0.0074806 0.493013 192 199 207 
0.0731947 0.00747976 0.492957 195 201 212 
0.0739986 0.00747973 0.492956 196 202 213 
0.0747765 0.00747712 0.492783 196 205 217 
0.0755795 0.00747704 0.492778 197 206 218 
0.0763808 0.00747681 0.492763 195 204 216 
0.0771754 0.00747592 0.492704 194 203 215 
0.0779907 0.00747703 0.492777 192 201 213 
0.0787911 0.00747671 0.492757 189 198 210 
0.0795902 0.00747627 0.492728 185 193 208 
0.0803954 0.00747641 0.492737 181 189 204 
0.0811854 0.00747515 0.492654 172 180 195 
0.0819694 0.00747337 0.492536 160 168 183 
0.082763 0.00747248 0.492478 154 165 176 
0.0835817 0.00747387 0.492569 146 157 168 
0.0843906 0.00747435 0.492601 144 155 166 
0.085201 0.00747496 0.492641 141 152 163 
0.0860153 0.00747589 0.492703 136 145 157 
0.0868253 0.00747643 0.492738 132 141 153 
0.0876459 0.00747788 0.492834 129 138 148 
0.0884648 0.00747915 0.492917 126 135 145 
0.0892868 0.00748066 0.493017 122 133 142 
0.0901189 0.00748297 0.493169 123 134 143 
0.0909288 0.00748343 0.493199 119 132 141 
0.0917412 0.00748408 0.493242 121 134 143 
0.0925571 0.00748499 0.493302 120 133 142 
0.0933768 0.0074862 0.493382 120 133 142 
0.0942054 0.0074881 0.493507 123 132 142 
0.0571264 0.00840501 0.500111 151 156 163 
0.0578594 0.008393 0.499396 151 156 163 
0.0585908 0.00838111 0.498688 153 158 165 
0.0593277 0.00837031 0.498046 152 159 165 
0.0601167 0.00836706 0.497853 154 161 167 
0.0608826 0.00836072 0.497475 159 166 174 
0.0616453 0.00835412 0.497083 163 170 178 
0.0624106 0.00834804 0.496721 165 174 184 
0.0631921 0.00834424 0.496495 172 181 191 
0.0639702 0.00834011 0.496249 178 185 193 
0.0647479 0.00833602 0.496006 187 194 202 
0.0655226 0.00833165 0.495746 192 199 205 
0.0662438 0.00832067 0.495092 199 206 212 
0.0670111 0.00831568 0.494795 202 209 213 
0.0677724 0.00831006 0.494461 201 208 212 
0.068558 0.00830753 0.494311 201 208 214 
0.0693219 0.00830246 0.494009 198 205 211 
0.070083 0.00829716 0.493694 196 203 209 
0.0708436 0.00829194 0.493383 194 201 207 
0.0716213 0.0082888 0.493196 193 198 205 
0.0724131 0.00828736 0.49311 192 197 204 
0.0732054 0.00828599 0.493029 190 196 207 
0.0740024 0.00828519 0.492981 195 201 212 
0.0747844 0.00828274 0.492835 196 204 219 
0.0755847 0.00828235 0.492813 196 204 219 
0.0763822 0.00828166 0.492771 196 204 219 
0.0771794 0.00828096 0.49273 196 204 219 
0.0779913 0.00828183 0.492781 194 202 217 
0.0787921 0.00828152 0.492763 193 201 216 
0.0795934 0.00828126 0.492748 188 197 209 
0.0803959 0.00828114 0.49274 185 194 206 
0.0811853 0.00827967 0.492653 179 188 200 
0.0819662 0.00827739 0.492517 169 178 190 
0.0827581 0.00827624 0.492449 161 171 185 
0.0835744 0.00827754 0.492526 156 166 180 
0.0843827 0.00827802 0.492554 150 160 174 
0.0851909 0.00827849 0.492582 145 155 169 
0.0860017 0.0082792 0.492625 141 152 163 
0.0868087 0.00827952 0.492644 134 145 156 
0.0876279 0.008281 0.492732 131 140 152 
0.0884495 0.00828268 0.492832 129 138 150 
0.0892725 0.00828445 0.492937 124 133 145 
0.0901036 0.00828694 0.493085 123 132 144 
0.0909139 0.0082875 0.493118 122 133 144 
0.0917236 0.00828798 0.493147 122 133 144 
0.0925371 0.0082888 0.493196 120 131 140 
0.0933558 0.00829006 0.493271 121 132 141 
0.094186 0.00829232 0.493405 124 131 139 
0.0950213 0.00829498 0.493564 125 132 140 
0.0579084 0.00921635 0.499819 152 159 165 
0.0586473 0.00920437 0.49917 152 159 165 
0.0594007 0.00919496 0.498659 152 159 165 
0.0601602 0.00918673 0.498213 153 160 166 
0.0609139 0.00917784 0.497731 156 163 169 
0.0616725 0.00916993 0.497302 160 167 173 
0.0624339 0.00916263 0.496906 161 170 180 
0.0632392 0.00916187 0.496865 166 175 185 
0.0640092 0.00915609 0.496551 173 182 192 
0.064784 0.00915112 0.496282 179 188 198 
0.0655614 0.00914665 0.49604 188 195 201 
0.0662578 0.00913111 0.495197 192 199 205 
0.0670217 0.00912515 0.494874 197 204 210 
0.0677834 0.00911903 0.494542 201 208 214 
0.0685662 0.00911586 0.49437 203 210 216 
0.0693352 0.00911095 0.494103 202 209 215 
0.0701017 0.00910582 0.493825 199 204 211 
0.0708697 0.00910102 0.493565 196 201 208 
0.0716312 0.00909548 0.493264 193 198 205 
0.0724195 0.00909344 0.493154 192 197 204 
0.0732098 0.00909169 0.493059 190 196 207 
0.0740001 0.00908998 0.492966 195 201 212 
0.0748077 0.00909041 0.492989 194 202 217 
0.0756047 0.00908954 0.492942 194 202 217 
0.0764009 0.00908862 0.492892 194 204 218 
0.0771993 0.00908796 0.492857 193 203 217 
0.0779926 0.00908673 0.49279 193 203 217 
0.0787874 0.00908568 0.492733 193 203 217 
0.0795874 0.00908526 0.49271 192 201 213 
0.0803845 0.00908452 0.49267 186 195 207 
0.0811687 0.00908235 0.492552 180 189 201 
0.0819418 0.009079 0.492371 176 185 197 
0.0827253 0.00907684 0.492254 171 179 194 
0.0835688 0.00908125 0.492493 164 172 187 
0.0843737 0.00908143 0.492502 154 164 178 
0.085178 0.00908153 0.492508 149 159 173 
0.0859906 0.00908251 0.492561 140 153 164 
0.0867922 0.00908232 0.492551 137 150 161 
0.0876138 0.00908421 0.492653 135 146 157 
0.0884356 0.00908607 0.492754 130 141 152 
0.0892564 0.00908782 0.492849 126 135 147 
0.0900917 0.00909098 0.493021 125 134 146 
0.0909001 0.00909141 0.493044 125 134 146 
0.0917099 0.00909196 0.493073 123 132 144 
0.0925251 0.00909303 0.493132 122 131 141 
0.0933344 0.00909352 0.493158 122 131 141 
0.0941669 0.00909623 0.493305 124 131 139 
0.0950038 0.00909932 0.493473 128 135 143 
0.0958367 0.00910198 0.493617 124 134 141 
0.0587116 0.0100305 0.499716 150 157 165 
0.0594545 0.0100184 0.49911 152 159 165 
0.0602302 0.010012 0.498792 153 160 166 
0.0609655 0.00999913 0.498153 154 161 167 
0.0617197 0.00998968 0.497682 154 161 167 
0.0624744 0.00998057 0.497228 159 166 174 
0.063266 0.0099775 0.497075 164 171 179 
0.0640354 0.00997106 0.496754 166 175 185 
0.0648048 0.00996478 0.496441 172 181 191 
0.0655241 0.00995104 0.495757 180 187 193 
0.0662824 0.0099435 0.495381 187 194 200 
0.0670445 0.00993669 0.495042 194 201 207 
0.0677997 0.00992904 0.494661 199 206 212 
0.0685774 0.00992481 0.49445 203 208 215 
0.0693491 0.00991983 0.494202 205 210 217 
0.0701119 0.00991371 0.493897 203 208 215 
0.0708785 0.00990826 0.493626 198 203 210 
0.0716512 0.00990377 0.493402 199 204 211 
0.0724402 0.00990162 0.493295 196 201 208 
0.0732285 0.00989941 0.493185 191 198 206 
0.0740146 0.00989696 0.493063 191 198 206 
0.0748168 0.00989669 0.493049 192 201 213 
0.07561 0.00989524 0.492977 192 201 213 
0.0764028 0.00989378 0.492904 193 201 216 
0.077201 0.00989304 0.492868 194 202 217 
0.0779917 0.00989137 0.492784 196 204 219 
0.0787903 0.00989071 0.492751 195 203 218 
0.0795907 0.0098903 0.492731 194 204 218 
0.0803811 0.00988866 0.492649 188 198 212 
0.0811649 0.00988625 0.492529 185 196 207 
0.0819309 0.00988175 0.492305 182 193 204 
0.0827146 0.00987944 0.49219 175 184 196 
0.0835275 0.00988064 0.492249 167 176 188 
0.0843305 0.00988064 0.49225 160 170 184 
0.0851342 0.00988074 0.492254 154 164 178 
0.0859387 0.00988092 0.492264 143 155 169 
0.0867391 0.00988063 0.492249 141 153 167 
0.0875614 0.00988282 0.492358 135 148 159 
0.0883858 0.00988521 0.492477 132 145 156 
0.0892129 0.00988785 0.492609 129 140 151 
0.0900523 0.00989179 0.492805 128 139 150 
0.0908622 0.00989245 0.492838 126 135 147 
0.0916721 0.0098931 0.49287 124 133 145 
0.0924793 0.00989345 0.492888 122 131 141 
0.0933145 0.00989676 0.493053 123 132 142 
0.0941379 0.00989878 0.493153 122 132 139 
0.0949684 0.0099015 0.493289 123 133 140 
0.0958027 0.00990457 0.493442 123 135 141 
0.0966628 0.00991023 0.493724 124 136 142 
0.059506 0.0108428 0.499543 152 159 165 
0.0603048 0.0108399 0.49941 152 159 165 
0.0610444 0.0108266 0.498798 152 159 165 
0.0617818 0.0108133 0.498183 152 159 165 
0.0625165 0.0107999 0.497564 156 163 169 
0.0632981 0.0107947 0.497327 161 168 174 
0.0640702 0.0107882 0.497025 166 173 181 
0.064835 0.0107805 0.496673 171 178 186 
0.0655465 0.0107643 0.495927 175 182 188 
0.0663039 0.010756 0.495542 181 188 194 
0.0670628 0.010748 0.495177 189 196 200 
0.0678146 0.0107392 0.494769 196 203 207 
0.06859 0.0107343 0.494542 202 207 212 
0.0693621 0.0107289 0.494295 205 210 215 
0.0701298 0.010723 0.494023 206 211 218 
0.0708957 0.010717 0.493746 205 210 217 
0.0716685 0.0107121 0.493521 202 207 214 
0.0724583 0.0107099 0.493418 198 203 210 
0.0732453 0.0107073 0.493298 192 197 206 
0.0740298 0.0107044 0.493164 191 196 205 
0.0748256 0.0107031 0.493107 189 198 208 
0.0756177 0.0107014 0.493028 190 199 209 
0.0764109 0.0106999 0.492956 193 202 214 
0.0772056 0.0106986 0.492897 194 203 215 
0.0779925 0.0106962 0.492789 195 203 218 
0.0787894 0.0106953 0.492746 195 203 218 
0.0795856 0.0106943 0.4927 189 199 213 
0.0803791 0.0106929 0.492637 189 199 213 
0.0811573 0.0106896 0.492483 189 200 211 
0.0819246 0.0106849 0.492267 187 198 209 
0.0827061 0.0106821 0.49214 181 190 202 
0.083514 0.0106828 0.49217 176 185 197 
0.0843144 0.0106825 0.492156 166 176 190 
0.0851153 0.0106822 0.492145 159 169 183 
0.085918 0.0106822 0.492145 152 164 178 
0.0867184 0.010682 0.492132 142 154 168 
0.087541 0.0106844 0.492244 140 153 164 
0.0883663 0.0106871 0.492369 136 149 160 
0.0891928 0.0106899 0.492497 135 146 157 
0.0900165 0.0106923 0.492609 132 143 154 
0.0908292 0.0106934 0.492659 130 141 152 
0.0916439 0.0106947 0.492719 125 136 147 
0.0924585 0.010696 0.492777 124 133 143 
0.0932842 0.0106985 0.492893 124 133 143 
0.0941019 0.0107 0.492965 123 132 142 
0.0949219 0.0107018 0.493047 122 131 141 
0.0957751 0.0107073 0.4933 124 134 141 
0.0966175 0.0107115 0.493493 124 134 141 
0.0974606 0.0107157 0.493686 122 132 139 
0.06039 0.011672 0.500116 152 159 165 
0.0611221 0.011656 0.499433 155 162 168 
0.0618498 0.0116397 0.498731 153 160 166 
0.0625735 0.011623 0.498017 153 160 166 
0.0633387 0.0116143 0.497647 159 166 172 
0.0641053 0.0116062 0.497297 161 168 174 
0.0648674 0.0115974 0.496921 166 173 179 
0.0655657 0.0115776 0.496072 170 177 183 
0.0663251 0.0115689 0.4957 175 182 188 
0.0670819 0.01156 0.495318 185 190 197 
0.0678301 0.0115498 0.494882 190 195 202 
0.0686042 0.0115443 0.494644 195 200 205 
0.0693744 0.0115382 0.494383 202 207 212 
0.0701437 0.0115321 0.494121 205 212 216 
0.0709145 0.0115264 0.493876 206 213 217 
0.0716877 0.0115212 0.493654 203 210 214 
0.0724752 0.0115183 0.493533 198 205 209 
0.0732608 0.0115153 0.493402 193 198 205 
0.0740443 0.011512 0.493261 192 197 204 
0.0748353 0.0115099 0.493171 191 198 206 
0.0756258 0.0115078 0.49308 191 198 206 
0.0764204 0.0115063 0.493018 190 199 209 
0.0772129 0.0115046 0.492943 193 202 212 
0.0779956 0.0115014 0.492809 194 203 215 
0.07879 0.0115001 0.49275 192 201 213 
0.0795822 0.0114984 0.492679 191 201 215 
0.0803739 0.0114967 0.492605 193 203 217 
0.0811452 0.0114921 0.49241 193 203 217 
0.0819159 0.0114876 0.492215 191 201 215 
0.0826963 0.0114845 0.492081 187 196 208 
0.083495 0.0114839 0.492058 182 191 203 
0.0842946 0.0114835 0.49204 182 188 201 
0.0850935 0.011483 0.492019 170 176 189 
0.0858953 0.0114829 0.492015 160 168 183 
0.0866975 0.0114829 0.492013 153 161 176 
0.0875215 0.0114857 0.492134 146 154 169 
0.0883456 0.0114885 0.492253 145 153 168 
0.0891737 0.0114917 0.492392 140 149 161 
0.0899943 0.0114939 0.492487 139 148 160 
0.0908122 0.0114958 0.492567 137 148 159 
0.0916304 0.0114976 0.492646 129 140 151 
0.0924464 0.0114992 0.492713 124 133 145 
0.0932755 0.0115023 0.492847 124 133 145 
0.0940867 0.0115032 0.492885 123 132 144 
0.0949028 0.0115047 0.492948 124 133 145 
0.0957261 0.011507 0.493047 123 132 142 
0.0965561 0.0115101 0.493179 122 131 141 
0.0973954 0.0115142 0.493356 122 132 139 
0.0982267 0.0115173 0.493489 123 133 140 
0.061158 0.012479 0.499726 154 161 167 
0.0619013 0.0124645 0.499147 152 159 165 
0.0626556 0.0124526 0.49867 152 159 165 
0.0633847 0.0124361 0.498009 154 161 167 
0.0641281 0.0124227 0.497473 156 163 171 
0.0648201 0.0123999 0.496558 161 168 176 
0.0655992 0.012394 0.496325 162 172 177 
0.0663479 0.0123827 0.495871 168 178 183 
0.0671005 0.0123723 0.495455 174 181 189 
0.0678548 0.0123625 0.495062 181 188 196 
0.0686182 0.0123546 0.494745 188 195 199 
0.0693805 0.0123466 0.494426 196 203 207 
0.0701449 0.0123392 0.49413 201 209 210 
0.070914 0.0123328 0.493873 206 214 215 
0.0717131 0.0123317 0.493829 204 215 215 
0.0724991 0.0123284 0.493695 203 214 214 
0.0732819 0.0123246 0.493544 199 206 212 
0.0740673 0.0123213 0.493414 195 202 208 
0.0748493 0.0123176 0.493264 191 198 204 
0.0756366 0.0123148 0.493151 191 198 204 
0.0764295 0.0123129 0.493076 192 199 207 
0.0772194 0.0123106 0.492985 192 199 207 
0.078017 0.0123096 0.492944 192 201 211 
0.0788059 0.0123072 0.492849 194 203 213 
0.0795906 0.0123043 0.492731 194 204 218 
0.0803769 0.0123016 0.492624 195 205 219 
0.081149 0.0122968 0.492433 195 205 219 
0.0819165 0.0122915 0.492218 193 203 217 
0.0827026 0.012289 0.492119 189 200 211 
0.0835074 0.0122893 0.492131 187 198 209 
0.0843061 0.0122887 0.492108 186 190 204 
0.0851033 0.0122879 0.492076 179 183 197 
0.0859066 0.012288 0.49208 171 177 190 
0.0867079 0.0122878 0.492072 163 169 182 
0.0875234 0.0122896 0.492144 155 163 178 
0.0883409 0.0122917 0.492227 151 159 174 
0.0891583 0.0122937 0.492307 146 155 165 
0.089986 0.0122971 0.492442 147 156 166 
0.0908045 0.0122991 0.492525 137 148 159 
0.0916235 0.0123012 0.492609 134 145 156 
0.092445 0.0123036 0.492705 129 138 150 
0.0932533 0.0123042 0.49273 124 133 145 
0.094068 0.0123057 0.492787 123 132 144 
0.0948831 0.0123071 0.492846 124 133 145 
0.095725 0.012312 0.493042 125 135 142 
0.0965533 0.0123151 0.493165 125 135 142 
0.0973839 0.0123184 0.493297 124 131 137 
0.0982219 0.0123226 0.493465 126 133 139 
0.0990442 0.0123248 0.493552 126 133 141 
0.0999053 0.0123317 0.493829 127 134 142 
0.061955 0.0132912 0.49958 154 159 166 
0.0626974 0.0132758 0.499003 154 159 166 
0.0634555 0.0132641 0.498564 154 159 166 
0.0641802 0.0132459 0.497877 156 163 169 
0.0648665 0.0132202 0.496914 157 164 170 
0.0656362 0.013212 0.496605 159 169 174 
0.066381 0.0131991 0.496118 162 172 177 
0.0671264 0.0131865 0.495647 167 177 184 
0.0678738 0.0131746 0.495201 175 185 192 
0.0686477 0.0131682 0.494957 181 188 194 
0.0694053 0.0131587 0.494603 188 195 201 
0.0701666 0.0131502 0.494283 197 204 208 
0.0709276 0.0131418 0.493967 202 209 213 
0.0717186 0.0131392 0.493867 203 214 214 
0.0725041 0.0131355 0.49373 201 212 212 
0.0732862 0.0131313 0.493573 201 211 214 
0.0740708 0.0131277 0.493437 195 205 208 
0.0748615 0.0131252 0.493344 195 205 210 
0.075653 0.013123 0.493258 190 200 205 
0.0764467 0.0131211 0.493187 191 198 206 
0.0772339 0.0131182 0.493078 191 198 206 
0.0780242 0.0131158 0.492989 190 199 209 
0.0788089 0.0131126 0.492868 193 202 212 
0.0795914 0.013109 0.492735 193 204 215 
0.0803755 0.0131059 0.492615 194 205 216 
0.0811504 0.0131012 0.492441 194 204 220 
0.081923 0.0130963 0.492257 194 204 220 
0.0827096 0.0130938 0.49216 193 203 217 
0.0835048 0.0130926 0.492116 191 201 215 
0.0843068 0.0130925 0.492112 188 197 209 
0.0851097 0.0130925 0.492113 182 191 203 
