ply
format ascii 1.0
comment Created by CloudCompare v2.11.3 (Anoia)
comment Created 2/20/25 3:56 PM
obj_info Generated by CloudCompare!
element vertex 1122
property float x
property float y
property float z
property uchar red
property uchar green
property uchar blue
end_header
0.138069 -0.00766766 0.483614 140 157 173 
0.138849 -0.00766717 0.483583 141 158 174 
0.139609 -0.00766562 0.483485 140 157 173 
0.14039 -0.00766518 0.483458 140 157 173 
0.141185 -0.00766555 0.483481 141 156 173 
0.142002 -0.00766703 0.483575 140 155 172 
0.142947 -0.00767543 0.484104 140 155 170 
0.14363 -0.00766976 0.483747 142 157 172 
0.124577 -0.00647447 0.408358 156 169 180 
0.124764 -0.00644972 0.406796 175 188 199 
0.125389 -0.00644772 0.406671 178 190 196 
0.126025 -0.00644635 0.406584 175 187 193 
0.126687 -0.0064463 0.406581 170 177 185 
0.127364 -0.006447 0.406625 168 175 183 
0.127995 -0.00644537 0.406522 166 173 181 
0.128633 -0.00644409 0.406442 168 175 183 
0.129263 -0.00644248 0.40634 165 175 182 
0.129902 -0.0064413 0.406265 165 175 182 
0.130534 -0.00643976 0.406168 166 176 183 
0.131176 -0.00643876 0.406105 165 175 182 
0.131821 -0.00643793 0.406053 166 176 183 
0.132504 -0.00643891 0.406115 162 172 179 
0.133173 -0.00643926 0.406136 160 171 180 
0.133851 -0.00643999 0.406183 160 171 180 
0.134508 -0.00643974 0.406167 157 170 181 
0.135186 -0.00644046 0.406212 157 170 181 
0.135863 -0.00644112 0.406254 159 170 181 
0.136532 -0.00644143 0.406274 161 172 183 
0.137201 -0.00644174 0.406293 161 172 181 
0.137855 -0.00644134 0.406268 160 171 180 
0.138509 -0.00644091 0.406241 161 174 183 
0.139165 -0.00644062 0.406222 162 175 184 
0.139821 -0.00644033 0.406204 164 178 184 
0.140464 -0.00643942 0.406147 162 176 182 
0.141132 -0.00643967 0.406162 159 172 181 
0.141795 -0.00643968 0.406163 161 174 183 
0.142463 -0.00643994 0.406179 162 175 184 
0.143133 -0.00644027 0.4062 159 172 181 
0.143798 -0.0064404 0.406209 158 169 178 
0.14445 -0.0064399 0.406177 154 165 174 
0.145095 -0.00643916 0.40613 155 168 179 
0.145743 -0.00643849 0.406088 158 171 182 
0.146385 -0.00643761 0.406033 159 175 183 
0.147047 -0.0064376 0.406032 155 171 179 
0.147693 -0.0064369 0.405988 155 171 179 
0.14834 -0.00643622 0.405945 159 175 183 
0.148993 -0.00643582 0.40592 159 173 179 
0.149646 -0.00643543 0.405895 158 172 178 
0.150324 -0.0064361 0.405938 157 171 175 
0.151004 -0.0064369 0.405988 157 171 175 
0.151682 -0.00643756 0.40603 156 168 172 
0.15232 -0.00643655 0.405966 153 165 169 
0.152966 -0.00643585 0.405922 158 172 178 
0.153603 -0.00643478 0.405854 162 176 182 
0.154241 -0.00643379 0.405792 161 177 185 
0.154921 -0.00643455 0.40584 159 175 183 
0.155574 -0.00643418 0.405817 161 177 185 
0.156231 -0.00643399 0.405804 163 179 187 
0.156849 -0.00643218 0.40569 164 176 180 
0.157502 -0.00643183 0.405668 165 177 181 
0.158155 -0.00643147 0.405646 168 178 181 
0.158798 -0.00643071 0.405598 169 179 182 
0.159587 -0.00643586 0.405922 168 178 181 
0.160201 -0.0064339 0.405798 162 172 175 
0.131109 -0.0068852 0.484129 135 154 172 
0.131902 -0.00688538 0.484141 136 152 171 
0.132711 -0.00688641 0.484213 140 156 175 
0.133553 -0.00688906 0.4844 135 155 170 
0.134315 -0.00688762 0.484298 140 160 175 
0.13507 -0.00688588 0.484176 139 159 174 
0.135801 -0.00688288 0.483965 138 158 173 
0.136458 -0.00687622 0.483497 136 156 171 
0.137251 -0.00687643 0.483512 135 155 170 
0.138031 -0.006876 0.483482 138 155 171 
0.138808 -0.0068754 0.48344 139 156 172 
0.13958 -0.00687462 0.483384 139 156 172 
0.140352 -0.0068738 0.483327 138 155 171 
0.141142 -0.00687386 0.483331 138 153 170 
0.141937 -0.00687418 0.483354 139 154 171 
0.142884 -0.00688184 0.483892 138 153 170 
0.143481 -0.00687264 0.483245 139 154 171 
0.12436 -0.00579751 0.407649 152 165 176 
0.124744 -0.00578446 0.406731 169 182 193 
0.125359 -0.00578222 0.406573 178 188 195 
0.126034 -0.00578279 0.406613 175 185 192 
0.126718 -0.00578374 0.40668 168 175 183 
0.127354 -0.00578248 0.406591 167 174 182 
0.127995 -0.0057815 0.406522 167 174 182 
0.128619 -0.00577975 0.406399 169 176 184 
0.12925 -0.00577831 0.406298 167 174 182 
0.129891 -0.00577733 0.406229 166 173 181 
0.130528 -0.00577623 0.406152 168 175 183 
0.131182 -0.00577586 0.406126 168 175 183 
0.131845 -0.00577584 0.406125 166 176 183 
0.132518 -0.0057763 0.406157 164 174 181 
0.133189 -0.00577667 0.406183 164 174 181 
0.133867 -0.00577734 0.40623 161 171 178 
0.134524 -0.00577712 0.406215 161 172 181 
0.1352 -0.00577768 0.406254 163 174 183 
0.13587 -0.005778 0.406277 158 171 180 
0.136536 -0.00577813 0.406285 158 171 180 
0.137204 -0.00577835 0.406301 163 174 183 
0.137861 -0.00577813 0.406286 160 171 180 
0.138518 -0.0057779 0.406269 157 169 175 
0.139178 -0.00577779 0.406261 161 173 179 
0.139839 -0.00577772 0.406257 161 175 181 
0.1405 -0.00577763 0.406251 161 175 181 
0.141162 -0.00577761 0.406249 161 174 183 
0.14182 -0.00577741 0.406235 162 175 184 
0.142475 -0.00577712 0.406215 164 177 186 
0.14314 -0.00577721 0.406221 159 172 181 
0.143805 -0.00577729 0.406227 158 169 178 
0.144462 -0.00577709 0.406213 154 165 174 
0.145105 -0.0057763 0.406157 157 168 177 
0.145753 -0.00577575 0.406118 161 172 181 
0.146399 -0.00577508 0.406071 159 172 181 
0.147054 -0.0057748 0.406051 158 171 180 
0.147702 -0.00577425 0.406013 155 171 179 
0.148347 -0.00577356 0.405964 159 175 183 
0.148998 -0.00577314 0.405934 156 173 178 
0.149657 -0.00577299 0.405924 159 176 181 
0.150334 -0.00577358 0.405966 159 173 177 
0.151016 -0.00577434 0.406019 157 171 175 
0.151695 -0.00577498 0.406064 154 168 172 
0.152337 -0.00577422 0.406011 149 163 167 
0.152983 -0.00577358 0.405966 155 169 173 
0.153623 -0.00577276 0.405908 158 172 176 
0.154261 -0.00577185 0.405844 161 175 179 
0.154942 -0.00577256 0.405893 163 177 181 
0.155598 -0.00577235 0.405879 166 178 182 
0.156258 -0.00577226 0.405873 165 177 181 
0.156864 -0.00577022 0.405729 164 174 177 
0.157526 -0.00577023 0.40573 167 177 180 
0.158179 -0.00576991 0.405708 172 182 185 
0.158825 -0.00576933 0.405667 171 181 184 
0.159585 -0.00577288 0.405916 171 178 182 
0.1602 -0.0057712 0.405798 170 177 181 
0.131058 -0.00609225 0.483942 136 153 169 
0.131862 -0.00609289 0.483993 136 153 169 
0.132667 -0.0060936 0.48405 137 154 170 
0.133532 -0.00609707 0.484325 132 152 167 
0.134294 -0.00609577 0.484222 137 157 172 
0.135047 -0.00609413 0.484092 135 155 170 
0.135782 -0.0060917 0.483899 134 154 169 
0.136422 -0.00608502 0.483368 135 155 168 
0.137211 -0.00608505 0.483371 134 154 167 
0.137991 -0.00608466 0.483339 138 155 169 
0.138771 -0.00608432 0.483312 137 154 168 
0.139548 -0.00608383 0.483274 139 154 171 
0.140332 -0.00608365 0.483259 135 150 167 
0.141127 -0.00608391 0.48328 137 149 167 
0.141919 -0.0060841 0.483295 140 152 170 
0.142826 -0.00608913 0.483695 133 147 167 
0.143358 -0.00607823 0.482829 134 148 168 
0.124204 -0.00512534 0.407135 154 167 178 
0.124755 -0.00512072 0.406769 175 188 199 
0.125386 -0.0051194 0.406664 178 188 195 
0.126058 -0.00511974 0.40669 174 184 191 
0.126743 -0.00512062 0.40676 167 177 184 
0.127336 -0.0051178 0.406536 165 175 182 
0.127978 -0.00511691 0.406466 168 175 183 
0.128611 -0.00511576 0.406374 169 176 184 
0.129239 -0.00511437 0.406264 168 175 183 
0.12988 -0.0051135 0.406195 164 171 179 
0.130524 -0.00511279 0.406138 167 174 182 
0.131181 -0.00511258 0.406122 168 175 183 
0.131856 -0.00511306 0.40616 167 174 182 
0.132529 -0.00511348 0.406193 166 173 181 
0.133203 -0.00511389 0.406226 165 174 184 
0.133879 -0.0051144 0.406266 165 174 184 
0.134539 -0.0051143 0.406258 164 175 184 
0.135212 -0.0051147 0.40629 163 174 183 
0.135877 -0.00511479 0.406297 157 170 179 
0.13654 -0.00511482 0.4063 157 170 179 
0.137209 -0.00511503 0.406316 157 170 179 
0.137867 -0.00511486 0.406303 155 168 177 
0.13853 -0.00511486 0.406303 157 168 177 
0.139192 -0.00511484 0.406301 161 172 181 
0.139857 -0.00511491 0.406307 165 176 185 
0.140517 -0.00511483 0.4063 166 177 186 
0.141174 -0.0051146 0.406283 164 177 186 
0.14183 -0.00511437 0.406264 164 177 186 
0.142482 -0.00511401 0.406235 165 178 187 
0.143144 -0.00511399 0.406233 162 175 184 
0.143809 -0.00511404 0.406238 161 172 181 
0.144465 -0.00511383 0.406221 163 174 183 
0.14512 -0.00511355 0.406199 164 175 184 
0.145771 -0.00511314 0.406166 160 171 180 
0.146422 -0.00511274 0.406134 158 171 180 
0.147076 -0.00511247 0.406113 158 171 180 
0.147721 -0.00511186 0.406065 159 175 183 
0.148368 -0.00511133 0.406022 159 175 183 
0.149016 -0.00511082 0.405982 156 172 180 
0.149682 -0.00511096 0.405993 160 176 184 
0.150348 -0.0051111 0.406004 164 178 182 
0.151029 -0.00511172 0.406053 158 172 176 
0.15171 -0.00511237 0.406105 152 166 170 
0.152356 -0.0051118 0.40606 152 166 170 
0.153002 -0.00511126 0.406017 152 169 174 
0.15365 -0.00511078 0.405979 153 170 175 
0.154285 -0.00510989 0.405908 157 171 175 
0.154964 -0.00511044 0.405952 157 171 175 
0.15562 -0.00511025 0.405937 164 174 177 
0.156278 -0.00511011 0.405925 166 176 179 
0.156892 -0.00510854 0.405801 167 177 180 
0.15755 -0.00510843 0.405792 169 179 182 
0.158205 -0.00510819 0.405773 169 179 182 
0.158857 -0.00510789 0.405749 168 178 181 
0.159586 -0.00511002 0.405918 169 176 180 
0.160193 -0.00510826 0.405778 171 178 182 
0.199847 -0.00634655 0.504143 171 178 182 
0.131013 -0.00530011 0.483775 134 149 164 
0.131802 -0.00530012 0.483776 135 150 165 
0.13259 -0.00530007 0.483771 134 149 164 
0.133399 -0.00530086 0.483844 130 150 163 
0.13417 -0.00530013 0.483777 132 152 165 
0.134944 -0.00529954 0.483723 128 148 161 
0.135711 -0.00529867 0.483643 128 148 161 
0.136368 -0.00529357 0.483178 130 150 163 
0.137155 -0.00529353 0.483175 129 149 162 
0.137937 -0.00529329 0.483153 127 147 160 
0.138725 -0.00529329 0.483153 131 151 164 
0.139443 -0.00529061 0.482908 137 154 170 
0.140231 -0.00529062 0.482909 131 148 164 
0.141006 -0.00529014 0.482865 135 150 167 
0.141766 -0.00528913 0.482773 134 149 166 
0.142493 -0.00528688 0.482568 131 146 163 
0.142775 -0.00526825 0.480867 132 147 164 
0.124627 -0.00447566 0.408523 160 171 182 
0.124702 -0.00445454 0.406595 180 191 202 
0.125323 -0.00445304 0.406457 175 185 190 
0.125976 -0.00445268 0.406425 168 178 183 
0.1266 -0.00445131 0.4063 169 176 184 
0.127298 -0.00445257 0.406415 167 174 182 
0.127917 -0.00445102 0.406273 164 173 183 
0.128533 -0.00444941 0.406126 164 173 183 
0.129175 -0.0044487 0.406062 167 176 186 
0.129854 -0.00444928 0.406115 166 175 185 
0.130534 -0.00444989 0.406171 164 174 181 
0.131212 -0.00445041 0.406217 162 172 179 
0.131885 -0.00445074 0.406248 164 173 183 
0.132559 -0.00445113 0.406283 166 175 185 
0.133232 -0.00445149 0.406317 167 178 187 
0.133901 -0.00445169 0.406334 165 176 185 
0.134578 -0.00445214 0.406376 163 174 183 
0.135238 -0.00445207 0.40637 163 174 183 
0.135898 -0.00445199 0.406362 162 175 184 
0.136562 -0.00445201 0.406363 159 172 181 
0.137208 -0.00445147 0.406314 161 174 183 
0.137874 -0.00445158 0.406324 161 174 183 
0.138543 -0.00445177 0.406342 161 172 181 
0.139208 -0.00445184 0.406348 164 175 184 
0.139881 -0.00445218 0.406379 165 176 185 
0.140538 -0.00445197 0.40636 166 177 186 
0.141189 -0.00445161 0.406327 165 176 185 
0.141845 -0.0044514 0.406308 161 172 181 
0.14249 -0.00445083 0.406256 162 175 184 
0.14315 -0.00445075 0.406249 164 177 186 
0.143815 -0.00445083 0.406256 162 175 184 
0.144476 -0.00445078 0.406251 161 174 183 
0.145131 -0.00445055 0.40623 159 173 179 
0.145781 -0.00445016 0.406195 156 170 176 
0.14643 -0.00444977 0.406159 156 170 176 
0.147078 -0.00444931 0.406117 156 170 176 
0.147727 -0.0044489 0.40608 160 171 180 
0.148379 -0.00444859 0.406052 165 176 185 
0.149036 -0.00444844 0.406038 165 176 185 
0.149703 -0.00444858 0.406051 165 176 185 
0.150383 -0.00444909 0.406097 165 177 181 
0.151063 -0.00444961 0.406145 165 177 181 
0.15174 -0.00445005 0.406185 158 170 174 
0.152392 -0.00444972 0.406155 161 173 177 
0.153043 -0.0044494 0.406125 159 173 179 
0.153682 -0.00444871 0.406063 157 171 177 
0.154327 -0.00444823 0.406019 156 170 174 
0.154988 -0.00444818 0.406014 154 168 172 
0.155648 -0.00444812 0.406009 160 170 173 
0.15632 -0.00444839 0.406033 166 176 179 
0.156921 -0.00444667 0.405876 167 177 180 
0.157567 -0.00444622 0.405836 168 178 181 
0.158212 -0.00444573 0.405791 169 179 182 
0.158857 -0.00444527 0.405749 168 178 181 
0.159598 -0.00444748 0.40595 166 173 177 
0.160182 -0.0044453 0.405752 162 169 173 
0.200182 -0.00553251 0.504988 168 175 181 
0.130992 -0.00450935 0.483697 128 143 158 
0.13177 -0.00450896 0.483656 133 145 161 
0.132553 -0.00450877 0.483635 132 144 160 
0.133371 -0.00450976 0.483742 130 145 160 
0.134144 -0.00450921 0.483682 127 142 157 
0.134929 -0.00450908 0.483668 127 144 158 
0.135689 -0.00450812 0.483565 129 146 160 
0.136354 -0.00450405 0.483129 130 147 161 
0.137141 -0.00450401 0.483124 127 144 158 
0.137923 -0.0045038 0.483102 129 146 160 
0.13871 -0.00450376 0.483098 129 146 160 
0.139426 -0.00450146 0.482851 129 149 162 
0.140201 -0.00450106 0.482808 127 147 160 
0.14097 -0.00450046 0.482744 130 147 161 
0.141723 -0.00449936 0.482626 130 147 161 
0.142322 -0.00449342 0.481989 130 147 161 
0.142548 -0.00447582 0.480101 127 144 158 
0.124727 -0.00381159 0.408851 157 166 178 
0.124763 -0.00379241 0.406795 176 185 197 
0.125362 -0.00379044 0.406584 176 183 189 
0.126004 -0.00378983 0.406517 168 175 181 
0.126627 -0.0037886 0.406386 170 177 185 
0.127277 -0.00378823 0.406347 169 176 184 
0.127923 -0.00378772 0.406291 161 170 180 
0.128539 -0.00378636 0.406145 158 167 177 
0.129183 -0.00378583 0.406089 163 175 181 
0.12986 -0.00378625 0.406133 164 176 182 
0.130537 -0.00378665 0.406177 161 175 181 
0.131217 -0.00378717 0.406232 157 171 177 
0.131881 -0.00378721 0.406236 162 176 182 
0.132557 -0.00378761 0.406279 166 180 186 
0.133234 -0.003788 0.406321 168 181 190 
0.133909 -0.00378833 0.406357 164 177 186 
0.134584 -0.00378869 0.406395 164 177 186 
0.135246 -0.00378866 0.406392 161 174 183 
0.135907 -0.0037886 0.406386 161 174 183 
0.136571 -0.00378863 0.406389 158 171 180 
0.137224 -0.00378838 0.406363 159 172 181 
0.137891 -0.00378847 0.406372 161 174 183 
0.138558 -0.00378859 0.406385 162 175 184 
0.139221 -0.00378861 0.406387 163 176 185 
0.139889 -0.00378874 0.406401 161 174 183 
0.140544 -0.00378854 0.406379 161 174 183 
0.141197 -0.00378828 0.406351 162 175 186 
0.141855 -0.00378814 0.406337 164 177 188 
0.142506 -0.00378782 0.406302 163 176 185 
0.143167 -0.00378777 0.406297 165 178 187 
0.143828 -0.00378773 0.406292 159 173 179 
0.144479 -0.00378743 0.406261 156 170 176 
0.145132 -0.00378717 0.406233 164 176 182 
0.145781 -0.00378681 0.406194 164 176 182 
0.146431 -0.00378649 0.406159 160 172 176 
0.147088 -0.00378635 0.406145 161 173 177 
0.147739 -0.00378607 0.406114 157 169 175 
0.148395 -0.0037859 0.406096 163 175 181 
0.14905 -0.00378572 0.406077 164 176 182 
0.149717 -0.00378583 0.406089 161 173 179 
0.150398 -0.0037863 0.406139 164 176 182 
0.151078 -0.00378674 0.406186 166 178 184 
0.15176 -0.00378721 0.406237 161 171 176 
0.152409 -0.00378688 0.406201 164 174 179 
0.15305 -0.00378636 0.406146 165 177 181 
0.153689 -0.00378577 0.406083 163 175 179 
0.15433 -0.00378524 0.406026 160 172 176 
0.155016 -0.00378584 0.406089 160 172 176 
0.15568 -0.00378586 0.406092 160 172 174 
0.156363 -0.00378636 0.406145 165 177 179 
0.156961 -0.00378481 0.405979 167 179 181 
0.157615 -0.00378462 0.405959 167 179 181 
0.158258 -0.00378416 0.405909 168 178 181 
0.158898 -0.00378363 0.405853 169 179 182 
0.159599 -0.00378455 0.405951 166 176 181 
0.160227 -0.00378374 0.405864 162 172 177 
0.200416 -0.00471334 0.505578 167 177 182 
0.201904 -0.00472887 0.507245 168 178 183 
0.130976 -0.00371899 0.483638 125 140 155 
0.131757 -0.00371876 0.483609 126 141 156 
0.132542 -0.00371865 0.483594 126 141 156 
0.133336 -0.00371879 0.483612 127 142 155 
0.134113 -0.00371847 0.483571 127 142 155 
0.134887 -0.00371808 0.48352 126 141 154 
0.135655 -0.0037175 0.483445 124 139 152 
0.13635 -0.00371494 0.483112 125 140 153 
0.137134 -0.00371483 0.483098 126 141 154 
0.137919 -0.00371477 0.48309 126 143 155 
0.138697 -0.00371451 0.483055 127 144 156 
0.139411 -0.00371252 0.482797 127 147 158 
0.140184 -0.00371213 0.482746 122 142 153 
0.140955 -0.00371171 0.482692 121 141 154 
0.141708 -0.00371081 0.482575 122 142 155 
0.142139 -0.00370153 0.481367 124 144 157 
0.142323 -0.00368597 0.479345 125 145 158 
0.124738 -0.00314418 0.408887 149 159 173 
0.124799 -0.00312898 0.40691 173 183 197 
0.125399 -0.0031274 0.406705 172 182 189 
0.126014 -0.0031262 0.406549 168 178 185 
0.126615 -0.00312466 0.406348 168 177 187 
0.12729 -0.00312497 0.406389 167 176 186 
0.127919 -0.00312413 0.40628 162 171 181 
0.128552 -0.00312342 0.406187 159 168 178 
0.129198 -0.00312301 0.406134 161 172 181 
0.129862 -0.00312306 0.40614 164 175 184 
0.130541 -0.00312345 0.406191 163 175 181 
0.131213 -0.00312367 0.40622 167 179 185 
0.131879 -0.00312376 0.406231 168 182 188 
0.132558 -0.00312415 0.406282 168 182 188 
0.133238 -0.00312456 0.406335 166 180 186 
0.133916 -0.0031249 0.406379 165 179 185 
0.134594 -0.00312526 0.406426 165 178 187 
0.135255 -0.0031252 0.406419 162 175 184 
0.135917 -0.00312518 0.406416 159 172 181 
0.136581 -0.00312521 0.406421 158 171 180 
0.137238 -0.00312507 0.406402 158 171 180 
0.137904 -0.00312514 0.406412 159 172 181 
0.138569 -0.0031252 0.406419 156 172 180 
0.139231 -0.00312518 0.406417 157 173 181 
0.139898 -0.00312526 0.406427 158 176 183 
0.140552 -0.00312507 0.406401 158 176 183 
0.141208 -0.00312491 0.406381 159 175 185 
0.141867 -0.00312482 0.40637 160 176 186 
0.142521 -0.00312464 0.406346 161 177 187 
0.143183 -0.00312461 0.406342 163 179 189 
0.143839 -0.00312448 0.406325 156 169 180 
0.144483 -0.00312408 0.406273 155 168 179 
0.145135 -0.00312383 0.40624 164 175 184 
0.145784 -0.00312355 0.406204 164 175 184 
0.146432 -0.00312324 0.406164 166 176 183 
0.147094 -0.00312322 0.406161 162 172 179 
0.14775 -0.00312309 0.406144 159 169 176 
0.148407 -0.00312297 0.406129 160 170 177 
0.149067 -0.00312292 0.406123 163 175 181 
0.149737 -0.00312308 0.406143 159 171 177 
0.150414 -0.00312339 0.406183 159 171 177 
0.151097 -0.0031238 0.406236 163 175 181 
0.151776 -0.00312415 0.406282 161 173 177 
0.152421 -0.00312377 0.406233 165 177 181 
0.153064 -0.00312337 0.406181 165 177 181 
0.153699 -0.00312283 0.40611 163 175 179 
0.154332 -0.00312222 0.406032 165 177 181 
0.155017 -0.00312268 0.406091 164 176 180 
0.155685 -0.0031228 0.406107 164 176 180 
0.156376 -0.00312336 0.40618 166 178 182 
0.156986 -0.00312232 0.406045 164 178 182 
0.157629 -0.00312194 0.405994 164 178 182 
0.158268 -0.00312149 0.405936 167 179 183 
0.158929 -0.00312147 0.405933 165 177 181 
0.159657 -0.00312275 0.406101 168 178 183 
0.160322 -0.00312279 0.406105 168 178 183 
0.201033 -0.00389967 0.507135 169 179 184 
0.201164 -0.00388622 0.505387 168 178 183 
0.130959 -0.0029288 0.483576 123 138 151 
0.13174 -0.00292862 0.483547 121 136 149 
0.132525 -0.00292853 0.483531 121 136 149 
0.133304 -0.00292833 0.483499 125 140 153 
0.134088 -0.00292823 0.483482 123 138 151 
0.134859 -0.00292785 0.48342 124 139 152 
0.135628 -0.00292742 0.483349 123 138 151 
0.136346 -0.00292591 0.483099 124 139 152 
0.137129 -0.00292581 0.483082 125 140 153 
0.137911 -0.00292569 0.483062 124 142 151 
0.138689 -0.00292547 0.483026 123 141 150 
0.139403 -0.00292392 0.482771 121 141 152 
0.140177 -0.00292363 0.482723 118 138 149 
0.140945 -0.00292323 0.482657 121 141 154 
0.141681 -0.00292217 0.482481 120 140 153 
0.142036 -0.00291332 0.481021 120 140 153 
0.142269 -0.00290207 0.479162 121 141 154 
0.124738 -0.00247644 0.408886 148 160 174 
0.124841 -0.00246531 0.407049 176 188 202 
0.12541 -0.00246343 0.406738 179 190 199 
0.126019 -0.00246238 0.406565 171 182 191 
0.12662 -0.00246117 0.406366 164 175 184 
0.127296 -0.00246142 0.406406 163 174 183 
0.127931 -0.00246088 0.406318 162 171 183 
0.128566 -0.00246036 0.406231 158 167 179 
0.129208 -0.00245996 0.406166 158 169 178 
0.129874 -0.00246002 0.406176 167 178 187 
0.130544 -0.00246017 0.4062 164 178 184 
0.131215 -0.00246033 0.406227 158 172 178 
0.13188 -0.00246037 0.406234 161 175 181 
0.132563 -0.00246076 0.406298 168 182 188 
0.133243 -0.00246107 0.406349 164 176 182 
0.133924 -0.0024614 0.406404 163 175 181 
0.134604 -0.00246173 0.406457 170 182 188 
0.135265 -0.00246169 0.406451 166 178 184 
0.135929 -0.00246169 0.406452 162 175 184 
0.136592 -0.00246171 0.406454 161 174 183 
0.13725 -0.00246162 0.406439 159 172 181 
0.137916 -0.00246166 0.406447 162 175 184 
0.13858 -0.00246168 0.406449 159 175 183 
0.139241 -0.00246166 0.406446 157 173 181 
0.139908 -0.00246172 0.406456 160 176 184 
0.140563 -0.00246158 0.406432 160 176 184 
0.141221 -0.0024615 0.40642 159 175 185 
0.141879 -0.00246141 0.406405 157 173 183 
0.142537 -0.00246133 0.406391 157 173 183 
0.143198 -0.00246129 0.406385 155 171 181 
0.143853 -0.00246115 0.406362 156 167 178 
0.144489 -0.0024607 0.406288 154 165 176 
0.145138 -0.00246047 0.40625 159 170 181 
0.145787 -0.00246024 0.406211 161 172 183 
0.146433 -0.00245996 0.406166 161 172 181 
0.147099 -0.00246002 0.406175 160 171 180 
0.147759 -0.00245998 0.406169 160 170 177 
0.148422 -0.00245999 0.406171 157 167 174 
0.149087 -0.00246002 0.406176 158 170 176 
0.149756 -0.00246014 0.406195 159 171 177 
0.150434 -0.00246039 0.406237 160 171 180 
0.151112 -0.00246064 0.406278 159 170 179 
0.151791 -0.0024609 0.40632 158 172 178 
0.152429 -0.00246051 0.406256 162 176 182 
0.153069 -0.00246014 0.406195 162 176 182 
0.153701 -0.00245965 0.406114 162 176 182 
0.154331 -0.00245913 0.406029 165 177 183 
0.155017 -0.00245951 0.40609 164 176 182 
0.155693 -0.00245972 0.406126 164 178 184 
0.156387 -0.00246021 0.406207 158 172 178 
0.157005 -0.00245953 0.406094 159 173 177 
0.157652 -0.00245928 0.406054 161 175 179 
0.158288 -0.00245888 0.405987 166 178 182 
0.158942 -0.00245875 0.405965 164 176 180 
0.159708 -0.00246035 0.40623 170 177 183 
0.160305 -0.00245934 0.406063 173 180 186 
0.201206 -0.00307412 0.507571 174 181 185 
0.13015 -0.00213876 0.483502 120 135 148 
0.130903 -0.00213817 0.483368 120 135 148 
0.131693 -0.0021382 0.483374 120 135 148 
0.132476 -0.0021381 0.483353 119 134 147 
0.133256 -0.00213797 0.483322 120 135 148 
0.134035 -0.00213783 0.48329 119 134 147 
0.134813 -0.00213766 0.483251 120 135 148 
0.135592 -0.00213752 0.483222 120 135 148 
0.136328 -0.0021367 0.483035 121 136 149 
0.137105 -0.00213653 0.482997 123 138 151 
0.137881 -0.00213635 0.482956 122 140 149 
0.13865 -0.00213606 0.48289 119 137 146 
0.139314 -0.00213416 0.482461 117 138 146 
0.140107 -0.00213426 0.482483 116 137 145 
0.140896 -0.00213429 0.482491 120 140 151 
0.141686 -0.00213433 0.4825 121 141 152 
0.142766 -0.00213872 0.483493 120 140 151 
0.143123 -0.00213229 0.482037 118 138 149 
0.124327 -0.00180275 0.407541 135 148 159 
0.124772 -0.00179957 0.406822 164 177 188 
0.125413 -0.00179925 0.40675 166 179 188 
0.126053 -0.00179891 0.406673 164 177 186 
0.126719 -0.00179896 0.406683 165 176 185 
0.12731 -0.00179793 0.406451 163 174 183 
0.127949 -0.0017976 0.406375 158 169 178 
0.128578 -0.00179713 0.406269 156 167 176 
0.129218 -0.0017968 0.406196 163 176 185 
0.129895 -0.001797 0.406241 165 178 187 
0.130549 -0.0017969 0.406217 159 172 181 
0.13121 -0.00179686 0.406209 152 165 174 
0.131865 -0.00179677 0.406189 152 169 174 
0.132559 -0.00179719 0.406285 155 172 177 
0.133249 -0.00179756 0.406367 157 171 177 
0.13394 -0.00179793 0.406452 161 175 181 
0.134603 -0.00179793 0.406451 166 176 183 
0.135269 -0.00179797 0.406461 166 176 183 
0.135935 -0.00179802 0.406471 167 177 184 
0.136597 -0.00179801 0.406469 167 177 184 
0.137273 -0.00179817 0.406506 165 177 183 
0.137936 -0.00179817 0.406506 168 180 186 
0.138596 -0.00179814 0.406498 164 178 184 
0.139262 -0.00179818 0.406507 161 175 181 
0.139909 -0.00179797 0.406459 162 175 184 
0.140569 -0.00179793 0.406451 159 172 181 
0.141232 -0.00179793 0.406451 161 174 183 
0.141891 -0.00179788 0.40644 161 174 183 
0.142558 -0.00179792 0.40645 154 167 176 
0.143213 -0.00179783 0.406429 151 164 173 
0.14386 -0.00179763 0.406383 157 166 176 
0.144496 -0.0017973 0.406308 162 171 181 
0.145147 -0.00179715 0.406274 159 170 179 
0.145799 -0.00179702 0.406245 158 169 178 
0.146447 -0.00179685 0.406206 161 172 181 
0.147112 -0.00179687 0.406212 163 174 183 
0.147768 -0.0017968 0.406195 158 170 176 
0.148431 -0.0017968 0.406195 156 168 174 
0.149095 -0.00179681 0.406198 153 165 171 
0.149765 -0.00179691 0.40622 159 171 177 
0.150447 -0.00179714 0.406272 163 174 183 
0.151126 -0.00179733 0.406316 163 174 183 
0.151812 -0.0017976 0.406376 164 178 184 
0.152447 -0.00179727 0.406303 165 179 185 
0.153085 -0.00179698 0.406237 165 179 185 
0.153722 -0.00179669 0.40617 163 177 183 
0.154352 -0.00179631 0.406085 163 177 183 
0.155063 -0.00179687 0.406212 164 178 184 
0.155759 -0.00179726 0.406298 163 177 183 
0.156459 -0.00179769 0.406396 156 170 176 
0.157026 -0.00179659 0.406149 158 172 176 
0.157673 -0.00179641 0.406108 159 173 177 
0.158334 -0.0017964 0.406105 165 175 180 
0.15899 -0.00179632 0.406088 167 177 182 
0.159834 -0.00179836 0.406549 168 178 181 
0.160414 -0.00179744 0.40634 171 181 184 
0.130139 -0.00134905 0.483458 117 132 145 
0.130909 -0.00134887 0.48339 118 133 146 
0.131698 -0.00134887 0.483392 120 132 146 
0.132476 -0.00134876 0.483353 120 132 146 
0.13323 -0.00134841 0.483229 116 131 144 
0.13401 -0.00134833 0.483199 117 132 145 
0.134789 -0.00134824 0.483168 116 131 144 
0.135575 -0.00134822 0.483159 118 133 146 
0.13633 -0.0013479 0.483044 120 137 151 
0.137106 -0.00134777 0.482999 120 137 151 
0.137878 -0.00134762 0.482944 118 135 149 
0.138642 -0.00134739 0.482863 117 134 148 
0.139293 -0.00134607 0.482388 118 135 149 
0.140074 -0.00134602 0.482371 117 134 148 
0.140887 -0.00134627 0.48246 117 134 146 
0.141689 -0.00134641 0.482511 118 135 147 
0.142834 -0.00134979 0.483723 119 134 147 
0.14338 -0.00134751 0.482905 116 131 144 
0.124698 -0.0011406 0.408756 132 145 156 
0.124717 -0.00113471 0.406643 145 158 169 
0.125377 -0.00113468 0.406633 167 178 187 
0.12604 -0.00113468 0.406633 170 181 190 
0.126709 -0.00113472 0.406649 169 178 188 
0.127311 -0.00113419 0.406456 166 175 185 
0.127949 -0.00113396 0.406376 159 170 179 
0.128582 -0.00113369 0.40628 160 171 180 
0.129226 -0.00113354 0.406223 163 176 185 
0.129892 -0.00113356 0.406232 163 176 185 
0.13055 -0.00113352 0.406218 156 172 182 
0.131205 -0.00113346 0.406196 148 164 174 
0.131873 -0.0011335 0.406211 151 169 176 
0.132564 -0.00113374 0.406298 156 174 181 
0.133253 -0.00113397 0.406378 161 178 183 
0.133942 -0.0011342 0.406459 161 178 183 
0.13461 -0.00113424 0.406474 163 175 181 
0.135277 -0.00113427 0.406486 164 176 182 
0.135944 -0.0011343 0.406499 164 176 182 
0.136608 -0.00113431 0.406501 167 179 185 
0.137279 -0.00113438 0.406525 167 179 185 
0.13794 -0.00113436 0.406518 170 182 188 
0.138601 -0.00113434 0.406511 168 179 188 
0.139266 -0.00113436 0.406519 159 170 179 
0.139918 -0.00113426 0.406485 158 171 180 
0.14058 -0.00113426 0.406481 157 170 179 
0.141244 -0.00113427 0.406485 157 170 181 
0.141904 -0.00113424 0.406477 158 171 182 
0.142566 -0.00113423 0.406473 159 170 179 
0.143223 -0.00113419 0.406457 160 171 180 
0.14387 -0.00113407 0.406413 162 172 179 
0.144511 -0.00113389 0.406351 164 174 181 
0.145161 -0.00113379 0.406314 162 172 179 
0.145812 -0.0011337 0.406281 166 176 183 
0.146459 -0.00113358 0.406238 169 183 189 
0.14712 -0.00113356 0.406233 165 179 185 
0.147778 -0.00113353 0.406221 157 170 179 
0.148439 -0.00113351 0.406215 157 170 179 
0.149101 -0.00113351 0.406215 159 172 181 
0.149769 -0.00113355 0.406229 163 176 185 
0.150447 -0.00113367 0.406271 162 175 184 
0.151126 -0.00113379 0.406315 158 171 180 
0.151809 -0.00113394 0.40637 166 178 184 
0.152453 -0.0011338 0.406319 168 180 186 
0.153102 -0.0011337 0.406282 163 175 181 
0.153745 -0.00113356 0.406231 165 177 183 
0.15438 -0.00113336 0.406159 167 178 187 
0.155077 -0.00113361 0.406249 167 178 187 
0.15577 -0.00113383 0.406327 167 179 185 
0.156463 -0.00113404 0.406405 166 178 184 
0.157041 -0.00113343 0.406185 166 178 182 
0.157691 -0.00113334 0.406153 163 175 179 
0.158341 -0.00113326 0.406123 165 175 180 
0.159002 -0.00113324 0.406119 171 181 186 
0.159799 -0.0011342 0.406461 172 182 185 
0.160414 -0.00113386 0.40634 172 182 185 
0.129364 -0.000559597 0.483509 116 133 145 
0.130138 -0.000559535 0.483456 118 130 144 
0.130908 -0.000559454 0.483385 119 131 145 
0.13169 -0.000559429 0.483364 118 130 144 
0.132468 -0.000559383 0.483325 116 128 142 
0.133214 -0.000559207 0.483172 114 126 140 
0.133992 -0.000559164 0.483135 118 130 144 
0.134779 -0.000559159 0.483131 114 129 142 
0.135562 -0.00055914 0.483114 117 132 145 
0.136327 -0.000559044 0.483032 117 132 147 
0.137108 -0.000559017 0.483008 117 132 147 
0.137873 -0.000558923 0.482927 117 132 147 
0.138633 -0.000558813 0.482832 118 133 148 
0.13928 -0.000558248 0.482344 118 133 148 
0.140055 -0.000558202 0.482304 118 133 148 
0.14084 -0.000558194 0.482297 117 132 145 
0.141668 -0.000558357 0.482438 117 132 145 
0.14288 -0.000560023 0.483878 120 132 146 
0.143526 -0.000559465 0.483395 118 130 144 
0.124692 -0.000470541 0.406562 164 177 188 
0.125356 -0.000470545 0.406565 170 181 190 
0.126032 -0.000470592 0.406606 171 182 191 
0.126711 -0.000470653 0.406659 169 178 188 
0.127308 -0.000470407 0.406446 168 177 187 
0.127949 -0.000470325 0.406376 167 178 187 
0.128587 -0.000470233 0.406296 168 179 188 
0.129227 -0.000470151 0.406225 164 177 186 
0.12989 -0.000470154 0.406227 161 174 183 
0.130547 -0.000470133 0.40621 155 171 179 
0.131204 -0.000470112 0.406191 147 163 171 
0.131877 -0.000470149 0.406224 148 164 172 
0.132567 -0.000470248 0.406309 152 168 176 
0.133256 -0.000470341 0.406389 162 175 184 
0.133947 -0.000470438 0.406473 159 172 181 
0.134618 -0.000470468 0.406499 159 172 181 
0.135286 -0.000470483 0.406512 158 171 180 
0.135952 -0.000470495 0.406522 159 172 181 
0.136618 -0.000470503 0.40653 164 177 186 
0.137285 -0.000470519 0.406543 162 178 186 
0.137946 -0.00047051 0.406536 161 177 185 
0.138607 -0.000470504 0.40653 156 169 178 
0.13927 -0.000470504 0.40653 154 167 176 
0.139925 -0.000470476 0.406506 157 168 177 
0.14059 -0.000470482 0.406511 158 169 178 
0.141254 -0.000470484 0.406513 159 170 179 
0.141916 -0.000470483 0.406512 159 170 179 
0.142577 -0.000470475 0.406505 157 168 177 
0.143225 -0.000470427 0.406464 154 165 174 
0.143882 -0.000470407 0.406446 160 170 177 
0.144525 -0.000470343 0.406391 164 174 181 
0.145176 -0.000470303 0.406356 161 171 176 
0.145826 -0.000470262 0.406321 164 174 179 
0.146475 -0.000470216 0.406282 163 177 183 
0.14713 -0.000470192 0.406261 158 172 178 
0.147787 -0.000470175 0.406246 158 171 180 
0.148448 -0.000470169 0.406241 161 174 183 
0.149106 -0.000470155 0.406229 163 176 185 
0.14977 -0.000470161 0.406233 162 175 184 
0.150448 -0.000470206 0.406273 159 172 181 
0.151124 -0.000470248 0.406309 156 169 178 
0.15181 -0.000470319 0.406371 164 176 182 
0.152465 -0.000470298 0.406352 167 179 185 
0.153121 -0.000470277 0.406334 167 179 185 
0.15377 -0.000470233 0.406296 165 177 183 
0.15441 -0.000470165 0.406237 166 178 184 
0.155094 -0.000470228 0.406292 167 179 185 
0.155786 -0.000470317 0.406368 166 176 183 
0.156471 -0.000470385 0.406427 167 177 184 
0.157058 -0.000470157 0.406231 165 175 180 
0.157715 -0.000470141 0.406216 165 175 180 
0.158355 -0.000470072 0.406157 164 174 179 
0.159007 -0.000470042 0.406131 169 179 184 
0.159775 -0.000470352 0.406399 170 178 179 
0.160424 -0.000470312 0.406364 174 182 183 
0.130125 0.000229955 0.483409 113 125 139 
0.130909 0.000229947 0.483392 118 130 144 
0.131688 0.00022993 0.483356 116 128 142 
0.132466 0.000229912 0.483318 116 128 142 
0.13319 0.000229801 0.483085 114 126 140 
0.133978 0.000229801 0.483086 116 128 142 
0.134762 0.000229795 0.483072 115 127 141 
0.135547 0.000229789 0.48306 115 127 141 
0.136337 0.000229792 0.483067 116 131 144 
0.137104 0.000229757 0.482994 116 131 144 
0.137872 0.000229724 0.482923 116 131 144 
0.138642 0.000229695 0.482862 117 132 145 
0.139263 0.00022942 0.482284 116 131 144 
0.140039 0.000229403 0.482249 118 133 146 
0.140819 0.000229392 0.482226 116 131 144 
0.141654 0.00022947 0.482389 117 132 145 
0.142901 0.000230212 0.483948 120 132 146 
0.143622 0.000230103 0.48372 116 128 142 
0.142415 0.000226922 0.477032 119 131 145 
0.12468 0.000193381 0.406522 154 170 180 
0.125355 0.0001934 0.406563 173 182 192 
0.126033 0.000193422 0.406609 174 183 193 
0.126715 0.00019345 0.406668 173 179 190 
0.127304 0.000193338 0.406433 168 174 185 
0.12795 0.000193312 0.406377 166 175 187 
0.128589 0.000193277 0.406304 167 176 188 
0.12923 0.000193244 0.406235 165 176 187 
0.129889 0.000193238 0.406223 164 175 186 
0.130547 0.000193232 0.406211 161 174 185 
0.131203 0.000193221 0.406188 158 171 182 
0.131878 0.00019324 0.406227 156 172 180 
0.132568 0.00019328 0.406311 156 172 180 
0.133259 0.000193322 0.406399 155 171 179 
0.133948 0.000193359 0.406478 157 173 181 
0.134625 0.000193379 0.406519 159 175 183 
0.135294 0.000193388 0.406538 156 172 180 
0.135959 0.00019339 0.406542 156 172 180 
0.136625 0.000193394 0.406552 157 173 181 
0.137294 0.000193402 0.406567 160 176 184 
0.137951 0.000193394 0.406551 160 176 184 
0.138613 0.000193392 0.406547 155 173 180 
0.139273 0.000193388 0.406539 153 171 178 
0.139931 0.000193381 0.406524 154 167 176 
0.140599 0.000193387 0.406536 151 164 173 
0.141263 0.00019339 0.406541 159 170 179 
0.141929 0.000193392 0.406547 160 171 180 
0.142589 0.000193388 0.406539 160 171 180 
0.143237 0.000193368 0.406496 159 170 179 
0.143893 0.000193358 0.406476 161 172 181 
0.144541 0.000193339 0.406435 160 171 180 
0.145192 0.000193323 0.406401 158 170 176 
0.145842 0.000193306 0.406366 160 172 178 
0.146492 0.000193289 0.40633 158 170 176 
0.14714 0.00019327 0.40629 157 169 175 
0.147796 0.000193261 0.406271 157 168 177 
0.148451 0.00019325 0.406248 159 170 179 
0.149109 0.000193244 0.406236 161 172 181 
0.149773 0.000193246 0.40624 160 171 180 
0.150447 0.000193261 0.406271 161 172 181 
0.151128 0.000193284 0.406319 159 170 179 
0.151809 0.000193307 0.406369 165 177 183 
0.152479 0.000193317 0.406389 165 177 183 
0.15314 0.000193315 0.406384 164 176 182 
0.153794 0.000193304 0.406361 163 175 181 
0.154442 0.000193285 0.406321 163 175 181 
0.155119 0.000193303 0.406359 168 180 186 
0.155799 0.000193323 0.406402 166 173 181 
0.15648 0.000193346 0.406449 164 171 179 
0.157072 0.000193259 0.406266 161 171 176 
0.157738 0.000193262 0.406274 166 176 181 
0.158373 0.000193229 0.406204 165 175 178 
0.159014 0.000193203 0.406149 165 175 178 
0.159773 0.000193319 0.406394 170 178 179 
0.160393 0.000193268 0.406285 174 182 183 
0.130138 0.00101949 0.483454 115 127 141 
0.130901 0.00101929 0.483362 116 128 142 
0.13166 0.00101906 0.483253 116 129 140 
0.132418 0.00101883 0.483141 119 132 143 
0.133116 0.00101814 0.482815 116 129 140 
0.133913 0.00101821 0.482851 118 131 142 
0.134713 0.00101831 0.482895 118 131 142 
0.13551 0.00101838 0.482929 115 128 139 
0.136312 0.00101848 0.482979 114 130 140 
0.137078 0.00101832 0.482902 114 130 140 
0.137839 0.00101813 0.48281 115 133 142 
0.138599 0.00101792 0.482713 116 134 143 
0.139266 0.00101704 0.482295 116 134 143 
0.140056 0.00101707 0.482307 116 134 143 
0.140855 0.00101716 0.482351 116 132 142 
0.141633 0.00101709 0.482319 117 133 143 
0.142155 0.0010152 0.481423 118 129 140 
0.142909 0.00101498 0.481318 120 131 142 
0.142554 0.00100693 0.477499 120 131 142 
0.12481 0.000858153 0.406948 150 161 172 
0.125434 0.000857882 0.406819 169 175 186 
0.126097 0.000857872 0.406815 171 177 188 
0.126756 0.000857846 0.406802 175 184 194 
0.127341 0.000857312 0.406549 171 180 190 
0.127968 0.000857076 0.406437 166 177 186 
0.128594 0.00085683 0.40632 164 175 184 
0.12922 0.000856582 0.406203 164 177 188 
0.129891 0.000856642 0.406231 164 177 188 
0.130556 0.000856652 0.406236 162 175 186 
0.13122 0.000856667 0.406243 159 172 183 
0.13189 0.000856714 0.406265 158 171 182 
0.132586 0.000856925 0.406365 158 171 182 
0.133287 0.000857172 0.406483 157 173 183 
0.133984 0.00085739 0.406586 157 173 183 
0.134652 0.000857419 0.4066 157 173 183 
0.135322 0.000857466 0.406622 156 172 182 
0.135983 0.000857453 0.406616 157 173 183 
0.136644 0.000857438 0.406609 157 173 183 
0.137314 0.00085748 0.406629 161 177 187 
0.137964 0.000857393 0.406587 159 175 185 
0.13862 0.000857351 0.406567 156 172 180 
0.139276 0.000857309 0.406547 152 168 176 
0.139938 0.000857302 0.406544 158 169 178 
0.140608 0.000857345 0.406565 158 169 178 
0.141277 0.000857376 0.406579 159 170 179 
0.141947 0.00085742 0.4066 161 172 181 
0.142605 0.00085739 0.406586 164 175 184 
0.143259 0.000857331 0.406558 160 171 180 
0.143917 0.000857302 0.406544 159 172 183 
0.144559 0.000857176 0.406485 158 171 182 
0.145204 0.00085707 0.406434 156 169 180 
0.145849 0.000856965 0.406384 156 169 180 
0.146492 0.000856851 0.40633 163 176 187 
0.147161 0.000856888 0.406348 161 174 185 
0.14782 0.000856865 0.406337 156 167 178 
0.148482 0.000856856 0.406333 156 167 178 
0.149153 0.000856905 0.406356 158 167 177 
0.149798 0.000856804 0.406308 158 167 177 
0.150471 0.000856864 0.406337 160 169 179 
0.151152 0.000856964 0.406384 160 169 179 
0.151824 0.00085702 0.40641 165 175 182 
0.152489 0.00085703 0.406415 164 174 181 
0.153147 0.000857003 0.406402 160 170 177 
0.153794 0.000856911 0.406359 160 170 177 
0.154434 0.000856789 0.406301 162 172 179 
0.155117 0.0008569 0.406353 165 175 182 
0.155774 0.000856865 0.406337 166 173 181 
0.156447 0.000856923 0.406365 168 175 183 
0.157045 0.000856571 0.406198 145 155 160 
0.157715 0.000856611 0.406216 161 171 176 
0.158396 0.000856711 0.406264 164 174 177 
0.15907 0.000856772 0.406293 167 177 180 
0.159832 0.000857304 0.406545 175 183 184 
0.160467 0.000857153 0.406473 174 182 183 
0.130107 0.00180857 0.483341 114 126 140 
0.130873 0.00180826 0.483257 115 127 141 
0.131639 0.00180796 0.483177 116 129 140 
0.132401 0.0018076 0.483082 116 129 140 
0.133107 0.00180648 0.482783 116 129 140 
0.133906 0.00180665 0.482826 118 131 142 
0.134695 0.00180666 0.482831 116 129 140 
0.135486 0.00180671 0.482843 115 128 139 
0.136302 0.00180709 0.482944 112 128 138 
0.137069 0.00180681 0.482871 114 130 140 
0.137849 0.00180671 0.482844 112 128 138 
0.138608 0.00180634 0.482743 116 132 142 
0.139289 0.00180496 0.482376 117 133 143 
0.140082 0.00180504 0.482396 118 134 144 
0.14085 0.0018048 0.482332 119 132 141 
0.141631 0.00180472 0.482313 116 129 138 
0.142106 0.00180077 0.481257 118 129 138 
0.142886 0.00180071 0.48124 121 132 141 
0.143316 0.00179626 0.480051 121 132 141 
0.124884 0.00152363 0.40719 140 149 159 
0.125462 0.00152258 0.406909 160 170 177 
0.126117 0.00152247 0.406881 167 177 184 
0.126772 0.00152237 0.406853 171 183 189 
0.127353 0.00152138 0.406589 167 179 185 
0.127972 0.00152085 0.406448 164 177 188 
0.128601 0.00152045 0.406341 159 172 183 
0.129227 0.00152002 0.406226 162 175 186 
0.129898 0.00152012 0.406253 163 176 187 
0.130556 0.00152006 0.406237 164 174 188 
0.131219 0.00152006 0.406237 163 173 187 
0.131894 0.00152021 0.406277 161 174 185 
0.132593 0.00152063 0.406389 159 172 183 
0.133298 0.00152111 0.406517 158 171 182 
0.134 0.00152155 0.406634 158 171 182 
0.134661 0.00152152 0.406627 157 170 181 
0.135329 0.00152158 0.406642 158 171 182 
0.135991 0.00152156 0.406638 157 173 183 
0.136652 0.00152154 0.406633 160 176 186 
0.137327 0.00152167 0.406666 160 176 184 
0.137977 0.00152153 0.406628 153 169 177 
0.138631 0.00152143 0.406601 154 166 170 
0.139284 0.00152131 0.406571 153 165 169 
0.139941 0.00152125 0.406553 159 169 174 
0.140613 0.00152134 0.406579 160 170 175 
0.141285 0.00152143 0.406602 161 173 177 
0.141959 0.00152155 0.406635 164 176 180 
0.142619 0.00152152 0.406626 164 176 182 
0.143273 0.00152142 0.4066 161 173 179 
0.143931 0.00152136 0.406583 159 173 179 
0.144572 0.00152113 0.406523 159 173 179 
0.145217 0.00152094 0.406471 159 172 181 
0.145861 0.00152074 0.406419 159 172 181 
0.146502 0.00152051 0.406358 160 171 182 
0.147171 0.00152058 0.406375 163 174 185 
0.147833 0.00152057 0.406372 161 172 183 
0.148497 0.00152058 0.406375 160 171 182 
0.149168 0.00152066 0.406398 161 172 181 
0.149816 0.00152051 0.406356 160 171 180 
0.150494 0.00152067 0.406398 157 167 174 
0.151181 0.0015209 0.406462 160 170 177 
0.151857 0.00152103 0.406497 159 169 176 
0.152513 0.00152097 0.40648 157 167 174 
0.153159 0.0015208 0.406434 158 168 175 
0.153798 0.00152056 0.40637 160 170 177 
0.154433 0.00152029 0.406296 162 169 177 
0.155112 0.00152044 0.406339 167 174 182 
0.155771 0.00152042 0.406331 167 173 184 
0.156442 0.00152049 0.406352 168 174 185 
0.15705 0.00151996 0.40621 154 166 170 
0.157723 0.00152006 0.406237 164 176 180 
0.158403 0.00152023 0.406282 166 178 180 
0.159086 0.00152042 0.406333 167 179 181 
0.159825 0.00152115 0.406526 172 178 180 
0.160469 0.00152097 0.406479 175 181 183 
0.130868 0.00259734 0.483237 114 126 140 
0.131629 0.0025968 0.483138 116 129 140 
0.132384 0.00259617 0.48302 115 128 139 
0.133071 0.00259419 0.482652 116 129 140 
0.133864 0.00259432 0.482675 118 131 142 
0.134659 0.00259447 0.482703 119 132 143 
0.135455 0.00259463 0.482732 119 132 143 
0.136273 0.0025952 0.48284 119 132 143 
0.137052 0.00259504 0.48281 119 132 143 
0.137824 0.00259476 0.482757 120 133 142 
0.138597 0.00259448 0.482705 119 132 141 
0.13932 0.00259329 0.482484 120 133 142 
0.140097 0.00259309 0.482447 123 136 145 
0.140878 0.002593 0.48243 122 135 144 
0.141635 0.00259245 0.482328 120 133 142 
0.142088 0.00258637 0.481196 122 135 144 
0.142871 0.00258633 0.481189 121 134 143 
0.143534 0.00258414 0.480781 123 134 143 
0.124986 0.00219037 0.407519 144 154 161 
0.125512 0.00218795 0.407071 159 169 174 
0.126135 0.00218725 0.406939 165 175 180 
0.126786 0.00218703 0.406899 165 179 185 
0.127351 0.00218534 0.406583 164 178 184 
0.127984 0.00218481 0.406486 163 176 185 
0.12861 0.00218419 0.406371 163 176 185 
0.129239 0.00218362 0.406264 165 176 185 
0.129909 0.00218374 0.406286 160 171 180 
0.130569 0.00218369 0.406277 159 170 181 
0.13122 0.0021835 0.406242 159 170 181 
0.131898 0.00218375 0.406288 161 172 183 
0.132601 0.00218441 0.406412 164 175 186 
0.133306 0.0021851 0.40654 161 174 185 
0.134011 0.00218579 0.406669 162 175 186 
0.134675 0.00218579 0.406669 163 174 185 
0.13534 0.00218582 0.406674 163 174 185 
0.136002 0.00218581 0.406671 159 172 183 
0.136663 0.00218577 0.406665 162 175 186 
0.137337 0.00218594 0.406696 157 170 179 
0.137989 0.00218575 0.406661 155 168 177 
0.138642 0.0021856 0.406632 159 169 174 
0.139295 0.00218543 0.406601 157 167 172 
0.139948 0.00218528 0.406574 155 165 168 
0.140621 0.00218543 0.406602 161 171 174 
0.141295 0.00218559 0.406631 161 173 175 
0.141971 0.0021858 0.40667 161 173 175 
0.142633 0.00218578 0.406666 158 170 174 
0.143288 0.00218564 0.406641 157 169 173 
0.143946 0.00218556 0.406625 155 169 175 
0.144585 0.00218519 0.406557 159 173 179 
0.14523 0.00218493 0.406508 159 173 179 
0.145874 0.00218465 0.406455 159 173 179 
0.146514 0.00218429 0.40639 156 169 178 
0.147181 0.00218436 0.406402 159 172 181 
0.147847 0.00218441 0.406411 160 171 180 
0.148514 0.00218447 0.406422 161 172 181 
0.149188 0.00218463 0.406452 165 176 185 
0.149842 0.0021845 0.406428 165 176 185 
0.150524 0.00218477 0.406479 165 177 183 
0.151208 0.00218508 0.406536 164 176 182 
0.151886 0.00218529 0.406575 161 173 179 
0.15253 0.00218502 0.406525 158 170 176 
0.153173 0.00218473 0.406471 160 170 177 
0.153808 0.00218433 0.406397 166 176 183 
0.154431 0.00218377 0.406293 160 170 177 
0.155099 0.00218385 0.406307 161 171 178 
0.155762 0.00218385 0.406308 167 174 182 
0.156435 0.00218398 0.406332 169 176 184 
0.157061 0.00218348 0.406239 168 180 186 
0.157736 0.00218365 0.40627 168 180 186 
0.158412 0.00218384 0.406304 166 178 182 
0.159087 0.00218401 0.406336 168 180 184 
0.159824 0.00218501 0.406523 173 180 184 
0.16047 0.00218479 0.406482 175 182 186 
0.130867 0.00338649 0.483237 114 126 140 
0.131633 0.00338591 0.483153 116 129 140 
0.13239 0.00338513 0.483042 118 131 142 
0.133073 0.00338246 0.482662 119 132 143 
0.133859 0.00338243 0.482656 120 133 144 
0.134642 0.00338232 0.482642 121 134 145 
0.13543 0.00338232 0.482641 121 134 145 
0.136223 0.00338248 0.482665 122 135 144 
0.137006 0.00338236 0.482648 121 134 143 
0.137792 0.00338234 0.482644 120 133 142 
0.138568 0.00338206 0.482605 121 134 143 
0.139322 0.00338126 0.48249 122 135 144 
0.140103 0.00338111 0.482469 121 134 143 
0.140874 0.00338072 0.482414 121 134 143 
0.14164 0.00338023 0.482343 125 138 147 
0.142298 0.00337718 0.481907 126 139 148 
0.143084 0.00337718 0.481908 125 138 147 
0.143835 0.00337635 0.481789 124 135 144 
0.125429 0.00286601 0.408966 135 144 154 
0.125536 0.00285326 0.407147 146 153 159 
0.126164 0.00285245 0.407032 166 173 179 
0.1268 0.00285182 0.406941 168 180 184 
0.127356 0.00284942 0.406599 172 184 188 
0.127998 0.00284894 0.40653 166 178 184 
0.128633 0.00284831 0.406441 165 177 183 
0.129258 0.00284748 0.406322 164 175 184 
0.129922 0.00284752 0.406328 159 170 179 
0.130576 0.00284731 0.406299 157 170 179 
0.131225 0.00284703 0.406258 156 169 178 
0.131905 0.00284739 0.406309 156 169 178 
0.132612 0.00284834 0.406445 159 172 181 
0.133314 0.00284918 0.406565 158 169 180 
0.134021 0.00285011 0.406698 158 169 180 
0.134688 0.00285018 0.406708 160 171 182 
0.135353 0.00285023 0.406714 160 171 182 
0.136014 0.00285019 0.406708 161 172 183 
0.136674 0.00285011 0.406698 159 170 181 
0.137348 0.00285033 0.406729 156 167 178 
0.137999 0.00285007 0.406692 156 167 178 
0.138653 0.00284988 0.406665 155 164 174 
0.139305 0.00284964 0.406631 154 163 173 
0.139958 0.00284944 0.406602 158 170 176 
0.140632 0.00284966 0.406633 161 173 179 
0.141307 0.0028499 0.406668 161 173 177 
0.141985 0.00285018 0.406708 160 172 176 
0.142645 0.00285012 0.4067 155 169 173 
0.143303 0.00285002 0.406685 156 170 174 
0.143961 0.00284991 0.406669 154 171 176 
0.144598 0.0028494 0.406596 159 176 181 
0.145243 0.00284904 0.406544 156 172 180 
0.145885 0.00284863 0.406486 159 175 183 
0.146524 0.00284815 0.406418 155 171 179 
0.147194 0.00284829 0.406438 157 173 181 
0.147863 0.0028484 0.406454 159 172 181 
0.148538 0.00284863 0.406487 161 174 183 
0.149209 0.0028488 0.40651 163 174 183 
0.149876 0.00284886 0.406519 165 176 185 
0.15056 0.00284925 0.406575 161 174 183 
0.151238 0.00284954 0.406616 154 167 176 
0.15192 0.00284989 0.406666 163 177 183 
0.152552 0.00284931 0.406583 161 175 181 
0.153187 0.00284878 0.406508 166 178 184 
0.153811 0.00284806 0.406404 165 177 183 
0.154428 0.00284722 0.406285 159 171 177 
0.155091 0.00284723 0.406286 160 172 178 
0.155763 0.00284738 0.406308 161 171 178 
0.156435 0.00284756 0.406333 160 170 177 
0.157067 0.00284701 0.406255 161 173 179 
0.157754 0.00284745 0.406318 166 178 184 
0.158413 0.00284738 0.406308 168 178 185 
0.159085 0.00284754 0.40633 173 183 190 
0.159836 0.00284911 0.406554 176 183 189 
0.130857 0.00417532 0.483199 116 129 140 
0.131629 0.00417482 0.483141 118 131 142 
0.132386 0.00417383 0.483026 120 133 144 
0.133071 0.0041706 0.482653 120 133 144 
0.133855 0.00417049 0.48264 121 134 145 
0.134641 0.00417045 0.482635 122 135 146 
0.135431 0.00417055 0.482646 122 135 146 
0.136203 0.00417007 0.482592 123 136 145 
0.136988 0.00417001 0.482584 125 138 147 
0.137766 0.00416975 0.482554 122 135 144 
0.138542 0.0041694 0.482514 123 136 145 
0.139313 0.00416893 0.482459 126 139 148 
0.140093 0.00416872 0.482436 125 138 147 
0.140881 0.00416875 0.482439 126 139 148 
0.141641 0.00416797 0.482348 127 140 149 
0.142298 0.00416417 0.481909 127 141 147 
0.143067 0.00416367 0.481851 127 141 147 
0.143833 0.0041631 0.481785 128 142 148 
0.144399 0.00415676 0.481051 128 142 148 
0.125893 0.00352818 0.408307 149 156 162 
0.126116 0.00351581 0.406876 159 166 172 
0.126785 0.00351597 0.406894 169 179 182 
0.127367 0.00351372 0.406634 173 183 186 
0.128009 0.00351313 0.406566 168 180 186 
