ply
format ascii 1.0
comment Created by CloudCompare v2.11.3 (Anoia)
comment Created 2/20/25 3:56 PM
obj_info Generated by CloudCompare!
element vertex 1151
property float x
property float y
property float z
property uchar red
property uchar green
property uchar blue
end_header
0.0537321 0.00325009 0.463773 109 115 126 
0.0544682 0.00324888 0.4636 117 123 134 
0.0551825 0.00324641 0.463248 131 140 152 
0.0559203 0.00324538 0.463101 142 151 163 
0.0565876 0.00324034 0.462381 144 155 166 
0.0573058 0.0032383 0.46209 147 158 169 
0.0580288 0.00323659 0.461846 147 158 167 
0.0587569 0.0032352 0.461648 149 160 169 
0.0594515 0.00323202 0.461195 147 158 167 
0.0601724 0.00323034 0.460955 150 161 170 
0.0609035 0.00322924 0.460798 152 163 172 
0.0616336 0.00322811 0.460637 153 164 173 
0.0623452 0.00322606 0.460344 161 171 178 
0.0630655 0.0032245 0.460121 161 171 178 
0.0637959 0.00322348 0.459975 163 170 174 
0.0645339 0.00322287 0.459888 163 170 174 
0.0652562 0.00322149 0.459692 162 169 173 
0.0659829 0.00322036 0.459531 154 161 165 
0.0667186 0.0032197 0.459436 150 157 163 
0.0674618 0.0032194 0.459394 145 152 158 
0.0681928 0.00321853 0.45927 138 148 155 
0.0689048 0.0032168 0.459022 135 145 152 
0.0696076 0.00321468 0.45872 133 142 152 
0.0703497 0.0032144 0.45868 133 142 152 
0.071071 0.00321319 0.458507 135 141 152 
0.0718025 0.00321245 0.458402 134 140 151 
0.0725426 0.00321212 0.458354 135 142 150 
0.0733001 0.00321255 0.458416 138 145 153 
0.0740478 0.00321255 0.458416 135 146 155 
0.0747935 0.00321246 0.458404 138 149 158 
0.075544 0.00321258 0.45842 139 152 161 
0.0763165 0.00321362 0.458569 141 154 163 
0.0770572 0.00321332 0.458526 141 154 163 
0.0778027 0.00321322 0.458512 139 152 161 
0.0785612 0.00321365 0.458574 132 143 152 
0.0792698 0.00321206 0.458346 127 138 147 
0.0800322 0.00321265 0.458431 124 133 145 
0.0808042 0.00321362 0.458568 119 128 140 
0.0815846 0.0032149 0.458751 117 121 133 
0.0823537 0.00321571 0.458867 106 110 122 
0.0462047 0.00421803 0.488142 57 58 54 
0.0467677 0.0041971 0.48572 60 60 60 
0.0475911 0.00419985 0.486038 64 64 64 
0.0482597 0.00418907 0.48479 62 68 70 
0.0487606 0.00416432 0.481926 62 68 70 
0.0489246 0.00411203 0.475875 68 73 80 
0.049351 0.00408309 0.472525 72 77 84 
0.0505763 0.00405773 0.46959 76 86 91 
0.0511944 0.00404604 0.468237 90 97 103 
0.0517239 0.0040278 0.466127 95 102 108 
0.0523548 0.00401787 0.464978 102 108 119 
0.0531034 0.00401713 0.464892 107 113 124 
0.0537445 0.00400838 0.46388 122 126 138 
0.0544807 0.00400688 0.463706 134 138 150 
0.0551971 0.00400398 0.46337 139 143 155 
0.0559358 0.00400276 0.463229 143 147 159 
0.056623 0.00399793 0.46267 145 154 164 
0.0573409 0.00399537 0.462374 147 156 166 
0.0580678 0.00399349 0.462157 148 157 167 
0.0587903 0.00399137 0.461911 150 159 169 
0.0594891 0.0039877 0.461487 154 160 171 
0.0602143 0.00398588 0.461275 155 161 172 
0.0609403 0.00398416 0.461076 157 166 176 
0.0616747 0.00398302 0.460944 159 168 178 
0.0623989 0.00398125 0.46074 160 170 175 
0.0631228 0.00397951 0.460538 160 170 175 
0.0638564 0.00397841 0.460411 159 166 170 
0.0645907 0.00397738 0.460292 159 166 170 
0.0653156 0.00397581 0.46011 158 163 168 
0.0660489 0.00397478 0.459991 153 158 163 
0.0667836 0.00397385 0.459883 144 154 159 
0.0675253 0.00397335 0.459826 140 150 155 
0.0682545 0.00397214 0.459686 134 145 154 
0.0689477 0.00396888 0.459308 130 141 150 
0.0696746 0.00396761 0.459161 130 141 152 
0.0704158 0.00396718 0.459111 129 140 151 
0.0711449 0.00396607 0.458983 133 142 152 
0.0718811 0.00396539 0.458904 133 142 152 
0.0726233 0.00396504 0.458864 135 144 154 
0.0733921 0.00396615 0.458992 137 146 156 
0.0741441 0.00396632 0.459012 137 148 157 
0.0748884 0.00396609 0.458985 139 150 159 
0.075633 0.00396588 0.458961 139 152 161 
0.0764026 0.00396696 0.459086 139 152 161 
0.077156 0.0039672 0.459114 137 148 159 
0.0779091 0.00396741 0.459139 134 145 156 
0.0786621 0.00396763 0.459163 129 138 150 
0.0793933 0.00396673 0.45906 119 128 140 
0.0801704 0.00396814 0.459222 114 123 133 
0.0809426 0.00396927 0.459354 108 117 127 
0.0817161 0.00397045 0.45949 104 110 121 
0.0459535 0.00498793 0.485488 58 58 58 
0.0465326 0.00496522 0.483278 60 60 60 
0.0471051 0.00494259 0.481075 64 64 64 
0.0475475 0.00490726 0.477636 69 74 81 
0.0482629 0.0049008 0.477007 70 75 82 
0.0486526 0.00486199 0.47323 70 77 83 
0.0491388 0.00483389 0.470494 74 81 87 
0.0498015 0.00482373 0.469506 79 89 96 
0.0504498 0.00481252 0.468415 83 93 100 
0.0510957 0.00480142 0.467335 96 103 111 
0.0517133 0.00478803 0.466032 99 106 114 
0.052374 0.00477895 0.465148 109 118 130 
0.0531183 0.00477766 0.465022 118 127 139 
0.0537787 0.00476896 0.464175 125 131 142 
0.0544984 0.00476568 0.463856 137 143 154 
0.0552223 0.00476287 0.463582 143 148 157 
0.0559546 0.00476084 0.463384 145 150 159 
0.0566588 0.00475651 0.462963 145 155 162 
0.0573814 0.00475381 0.4627 147 157 164 
0.0581051 0.00475127 0.462453 152 158 169 
0.0588305 0.00474894 0.462226 153 159 170 
0.0595323 0.00474479 0.461822 156 160 172 
0.06026 0.00474277 0.461626 161 165 177 
0.0609943 0.00474131 0.461484 160 167 175 
0.0617305 0.00474005 0.461361 163 170 178 
0.0624576 0.00473812 0.461173 163 170 176 
0.0631841 0.00473619 0.460986 163 170 176 
0.0639211 0.00473509 0.460878 159 166 170 
0.0646619 0.00473428 0.4608 155 162 166 
0.0653814 0.00473196 0.460574 151 156 161 
0.0661136 0.0047306 0.460441 146 151 156 
0.0668543 0.00472987 0.46037 137 147 154 
0.0675984 0.00472939 0.460323 133 143 150 
0.068324 0.00472764 0.460153 130 141 150 
0.0690273 0.00472441 0.459839 129 140 149 
0.0697619 0.00472336 0.459737 129 140 151 
0.0704916 0.00472201 0.459606 130 141 152 
0.0712279 0.00472113 0.459519 132 143 152 
0.0719723 0.00472079 0.459486 132 143 152 
0.0727304 0.00472135 0.459541 135 146 155 
0.0734876 0.00472184 0.459588 137 148 157 
0.0742394 0.00472197 0.459602 139 150 159 
0.0749862 0.0047218 0.459584 139 150 159 
0.0757337 0.00472166 0.459571 137 150 161 
0.0764959 0.00472244 0.459647 133 146 157 
0.0772539 0.00472295 0.459696 135 145 159 
0.0780153 0.00472365 0.459765 122 132 146 
0.07879 0.00472513 0.459909 118 128 142 
0.0795277 0.0047244 0.459837 115 125 139 
0.0803023 0.00472584 0.459978 109 120 131 
0.0451981 0.00578544 0.485881 58 58 58 
0.045726 0.00575214 0.483085 59 59 59 
0.0460737 0.0056977 0.478512 59 62 63 
0.0466008 0.00566689 0.475925 63 66 67 
0.0479063 0.00563781 0.473483 72 77 84 
0.0485312 0.00562073 0.472048 72 82 87 
0.0491704 0.00560583 0.470796 75 85 90 
0.0498356 0.0055943 0.469828 81 91 98 
0.0504759 0.00558036 0.468658 88 98 105 
0.0511426 0.00556971 0.467763 98 107 119 
0.0517486 0.00555287 0.466349 109 118 130 
0.0524774 0.00554951 0.466066 121 127 140 
0.0532368 0.00554943 0.46606 127 133 146 
0.0539093 0.00554041 0.465303 131 137 148 
0.0546175 0.00553527 0.46487 139 145 156 
0.0553344 0.00553113 0.464523 142 149 157 
0.0560621 0.00552817 0.464274 145 152 160 
0.0566962 0.00551618 0.463268 147 154 162 
0.0574232 0.00551344 0.463037 152 159 167 
0.0581512 0.00551085 0.46282 153 160 168 
0.0588858 0.00550895 0.46266 156 163 171 
0.0595849 0.00550383 0.46223 160 165 174 
0.0603177 0.0055019 0.462068 162 167 176 
0.0610526 0.0055002 0.461925 162 167 174 
0.0617899 0.00549877 0.461805 165 170 177 
0.0625227 0.00549696 0.461654 163 170 176 
0.0632575 0.00549538 0.461521 161 168 174 
0.0639954 0.00549411 0.461414 155 162 170 
0.0647405 0.00549347 0.46136 148 155 163 
0.0654535 0.00549015 0.461082 149 156 164 
0.0661846 0.00548841 0.460935 140 147 155 
0.0669232 0.00548733 0.460844 133 142 152 
0.0676707 0.00548698 0.460816 131 140 150 
0.0683829 0.00548383 0.46055 129 140 149 
0.0691132 0.00548217 0.460411 129 140 149 
0.0698502 0.00548107 0.460319 129 140 151 
0.0705799 0.00547943 0.460181 130 141 152 
0.0713276 0.0054792 0.460162 134 145 156 
0.0720805 0.00547938 0.460177 135 146 157 
0.0728403 0.00548007 0.460235 139 150 159 
0.0735842 0.00547957 0.460193 142 153 162 
0.0743378 0.00547979 0.460211 139 150 159 
0.0750879 0.00547975 0.460208 136 147 156 
0.0758361 0.00547957 0.460193 132 145 154 
0.076603 0.00548073 0.460291 128 141 150 
0.0773694 0.00548184 0.460384 130 140 154 
0.0781369 0.005483 0.460481 117 127 141 
0.0789156 0.00548492 0.460643 108 120 136 
0.0796812 0.0054859 0.460725 104 116 132 
0.0443166 0.00656573 0.484907 55 55 57 
0.0447757 0.00651742 0.481339 59 59 61 
0.0453829 0.00649197 0.47946 59 59 61 
0.0465978 0.00644368 0.475894 64 70 72 
0.0472356 0.00642486 0.474503 65 75 80 
0.0478381 0.00640191 0.472808 74 84 89 
0.0485443 0.00639334 0.472176 76 86 91 
0.0491275 0.00636911 0.470386 84 94 99 
0.0498032 0.00635741 0.469522 87 99 105 
0.0504438 0.00634167 0.468359 96 108 114 
0.0510567 0.00632296 0.466978 100 106 117 
0.0517972 0.00632038 0.466787 130 136 147 
0.0525282 0.00631673 0.466517 129 133 147 
0.0532875 0.00631654 0.466503 134 138 152 
0.0539513 0.00630519 0.465665 139 145 156 
0.0546641 0.0062998 0.465267 144 150 161 
0.0553808 0.006295 0.464913 145 152 160 
0.0561108 0.00629183 0.464678 146 153 161 
0.0568362 0.00628822 0.464412 152 159 167 
0.0575622 0.00628478 0.464158 154 161 169 
0.0582882 0.00628143 0.463911 155 162 170 
0.0590212 0.00627891 0.463725 159 166 174 
0.0597305 0.00627397 0.463359 163 168 177 
0.0604691 0.00627218 0.463227 164 169 178 
0.0612126 0.00627094 0.463136 162 167 174 
0.0619561 0.00626973 0.463047 165 170 177 
0.062625 0.0062611 0.462409 160 165 172 
0.0633624 0.00625944 0.462286 155 160 167 
0.0641087 0.00625868 0.462231 147 153 164 
0.0648604 0.00625846 0.462214 144 150 161 
0.0655725 0.00625448 0.46192 139 145 156 
0.066308 0.00625279 0.461795 138 144 155 
0.0670495 0.00625169 0.461714 132 141 151 
0.0677836 0.00624994 0.461585 130 139 149 
0.068508 0.00624734 0.461393 125 136 147 
0.0692424 0.0062457 0.461271 129 140 151 
0.0699835 0.00624469 0.461197 130 141 152 
0.070723 0.00624356 0.461114 132 143 154 
0.0714581 0.00624208 0.461004 136 147 158 
0.0722007 0.00624127 0.460944 138 149 160 
0.0729458 0.0062407 0.460902 143 154 163 
0.0737169 0.00624233 0.461023 142 153 162 
0.0744603 0.00624161 0.46097 138 149 158 
0.0752167 0.00624198 0.460997 135 146 155 
0.0759786 0.0062428 0.461057 129 142 153 
0.0767476 0.00624418 0.461159 119 132 143 
0.0775171 0.00624558 0.461263 117 127 141 
0.0782923 0.00624739 0.461397 108 118 132 
0.0790703 0.00624941 0.461545 99 111 125 
0.0798535 0.00625178 0.461721 94 106 120 
0.043365 0.00733045 0.483117 53 59 59 
0.0446971 0.00729066 0.480494 57 63 63 
0.0452941 0.00726072 0.478522 57 63 63 
0.0459363 0.00723893 0.477086 63 68 73 
0.046504 0.00720631 0.474935 64 69 74 
0.0471634 0.00718874 0.473777 71 78 84 
0.0478541 0.00717644 0.472967 79 86 92 
0.0485414 0.00716401 0.472148 84 91 99 
0.0491101 0.00713475 0.47022 92 99 107 
0.0497789 0.0071207 0.469293 97 106 116 
0.0503857 0.00709835 0.467821 104 113 123 
0.0511072 0.00709258 0.46744 113 119 130 
0.0518443 0.00708912 0.467212 128 134 145 
0.0525855 0.0070863 0.467026 135 139 153 
0.0533259 0.00708346 0.466839 140 144 158 
0.0540035 0.00707248 0.466115 142 148 159 
0.0547149 0.00706617 0.4657 145 151 162 
0.0554369 0.00706137 0.465383 148 155 163 
0.0561638 0.00705733 0.465117 148 155 163 
0.0568906 0.00705338 0.464857 153 160 168 
0.057615 0.00704925 0.464584 153 160 168 
0.0583453 0.00704592 0.464365 154 161 169 
0.0590778 0.00704295 0.464169 159 166 174 
0.0597856 0.00703714 0.463787 164 169 176 
0.060525 0.00703516 0.463656 167 172 179 
0.061272 0.00703409 0.463585 166 168 176 
0.0620223 0.00703343 0.463542 163 165 173 
0.0627348 0.00702854 0.46322 158 160 168 
0.0634813 0.00702754 0.463154 153 155 163 
0.064234 0.00702724 0.463134 146 151 160 
0.0649922 0.00702755 0.463154 140 145 154 
0.0657118 0.00702372 0.462902 134 140 153 
0.0664567 0.00702264 0.462831 133 139 152 
0.0672062 0.00702207 0.462793 132 138 151 
0.0678519 0.00701079 0.46205 132 138 151 
0.0685867 0.00700886 0.461923 130 139 151 
0.069326 0.00700743 0.461828 132 141 153 
0.0700731 0.00700682 0.461788 132 143 154 
0.0708203 0.00700622 0.461748 135 146 157 
0.0715669 0.00700558 0.461706 137 148 159 
0.0723112 0.00700472 0.46165 137 148 159 
0.0730541 0.00700375 0.461586 141 152 163 
0.0738197 0.00700496 0.461666 137 148 159 
0.0745794 0.00700559 0.461707 132 143 154 
0.0753386 0.00700616 0.461745 130 141 152 
0.0760949 0.00700644 0.461763 120 132 146 
0.0768871 0.00701 0.461998 116 128 142 
0.077677 0.00701328 0.462214 108 118 132 
0.0784477 0.00701478 0.462313 101 111 125 
0.0433084 0.00810881 0.482486 53 61 60 
0.043868 0.00806699 0.479998 55 63 62 
0.0445116 0.00804182 0.478501 56 64 63 
0.0451747 0.00802097 0.47726 60 68 67 
0.0458208 0.00799787 0.475885 63 70 74 
0.0464679 0.00797571 0.474567 66 73 77 
0.0471618 0.00796217 0.473761 72 79 87 
0.0478433 0.00794702 0.47286 82 89 97 
0.048513 0.00793041 0.471871 89 95 106 
0.0490864 0.00789882 0.469992 97 103 114 
0.0497719 0.00788599 0.469228 105 114 124 
0.0504187 0.00786748 0.468127 115 124 134 
0.0511453 0.0078618 0.467789 124 133 143 
0.0518928 0.00785945 0.467649 129 138 148 
0.052629 0.00785548 0.467413 141 145 159 
0.0533614 0.00785106 0.46715 145 149 163 
0.0540591 0.00784174 0.466595 148 152 164 
0.0547808 0.00783611 0.46626 149 153 165 
0.0554993 0.00783017 0.465907 148 155 163 
0.0562297 0.00782607 0.465663 153 160 168 
0.0569449 0.00781998 0.4653 155 162 170 
0.0576748 0.00781604 0.465066 154 161 169 
0.0584033 0.00781202 0.464827 159 166 172 
0.0591339 0.00780837 0.46461 162 169 175 
0.0598514 0.00780312 0.464297 164 169 174 
0.0605966 0.00780156 0.464205 167 172 177 
0.0613428 0.00780016 0.464121 164 166 172 
0.0620967 0.00779976 0.464098 160 162 168 
0.0628014 0.00779328 0.463712 150 151 164 
0.0635495 0.00779226 0.463651 145 146 159 
0.0643045 0.00779211 0.463642 140 144 156 
0.0650647 0.00779258 0.46367 136 140 152 
0.0658029 0.00779044 0.463543 133 139 152 
0.0665469 0.00778902 0.463459 131 137 150 
0.0673019 0.00778891 0.463452 132 137 153 
0.0680378 0.00778663 0.463316 130 135 151 
0.0687889 0.0077861 0.463285 132 138 151 
0.0695469 0.00778636 0.4633 134 140 153 
0.0703111 0.0077873 0.463356 136 147 158 
0.0710391 0.00778425 0.463175 136 147 158 
0.071789 0.00778365 0.463139 138 149 158 
0.0725423 0.00778342 0.463125 138 149 158 
0.0731755 0.00777045 0.462354 136 147 156 
0.073933 0.0077708 0.462374 131 142 151 
0.074699 0.00777203 0.462447 126 139 150 
0.0754625 0.00777298 0.462504 122 135 146 
0.0762496 0.00777631 0.462702 116 126 140 
0.0770325 0.00777915 0.462871 109 119 133 
0.0778235 0.00778275 0.463085 101 109 124 
0.041855 0.00892245 0.483881 46 57 53 
0.0423965 0.00887061 0.481069 50 61 57 
0.0430669 0.00884713 0.479796 54 62 59 
0.0437669 0.00883047 0.478892 56 64 61 
0.0444455 0.00881015 0.47779 60 68 65 
0.0450999 0.0087858 0.47647 62 70 67 
0.0458111 0.00877317 0.475785 65 75 78 
0.0464711 0.00875131 0.4746 70 80 83 
0.0471397 0.00873177 0.47354 74 83 95 
0.0477969 0.00871077 0.472401 83 92 104 
0.0484727 0.00869378 0.471479 94 103 115 
0.0490786 0.00866498 0.469918 102 111 123 
0.0497599 0.00865017 0.469115 114 123 133 
0.0504664 0.00864013 0.46857 124 133 143 
0.0511763 0.00863094 0.468072 129 138 148 
0.0519056 0.00862527 0.467764 136 145 155 
0.0526462 0.00862161 0.467566 143 148 157 
0.0533977 0.00861981 0.467468 146 151 160 
0.0541369 0.0086161 0.467267 148 153 162 
0.0548507 0.00860851 0.466855 150 155 164 
0.0555761 0.00860293 0.466552 152 159 167 
0.0563118 0.00859907 0.466343 155 162 170 
0.0570337 0.00859322 0.466026 156 163 169 
0.0577483 0.00858645 0.465659 159 166 172 
0.0584732 0.00858137 0.465383 162 169 173 
0.0592029 0.00857711 0.465152 162 169 173 
0.0599531 0.00857589 0.465086 162 168 170 
0.060686 0.00857226 0.464889 162 168 170 
0.0614295 0.0085702 0.464778 156 161 166 
0.0621838 0.00856968 0.464749 153 158 163 
0.0629067 0.00856488 0.464489 145 146 159 
0.0636577 0.008564 0.464441 142 143 156 
0.0644117 0.00856352 0.464415 134 140 151 
0.0651735 0.00856408 0.464446 133 139 150 
0.0659243 0.00856321 0.464398 129 137 152 
0.0666765 0.00856252 0.464361 129 137 152 
0.0674329 0.0085624 0.464355 130 138 153 
0.0681588 0.00855844 0.46414 132 140 155 
0.0689141 0.00855822 0.464128 132 140 155 
0.0696714 0.00855825 0.464129 138 146 161 
0.0704318 0.00855866 0.464152 138 149 158 
0.0711787 0.00855743 0.464085 138 149 158 
0.0719218 0.00855578 0.463996 138 149 158 
0.072672 0.008555 0.463953 136 147 156 
0.0734324 0.00855543 0.463976 134 145 154 
0.0741821 0.00855461 0.463932 130 141 150 
0.0749473 0.00855557 0.463984 118 130 144 
0.0757237 0.00855779 0.464104 111 123 137 
0.0765061 0.00856063 0.464259 110 120 136 
0.0772917 0.00856378 0.464429 102 112 128 
0.0411205 0.00972559 0.484525 45 56 56 
0.0416985 0.00967634 0.482072 48 59 57 
0.0423193 0.00963863 0.480193 51 62 60 
0.043042 0.0096251 0.479519 54 65 63 
0.0437171 0.00960158 0.478347 57 68 66 
0.0444331 0.00958773 0.477657 64 72 71 
0.0450715 0.00955788 0.47617 67 75 74 
0.0458336 0.00955484 0.476018 69 79 82 
0.0464393 0.00951984 0.474275 73 83 86 
0.0471387 0.00950488 0.473529 89 100 111 
0.0477881 0.00948049 0.472314 92 103 114 
0.0484842 0.00946598 0.471591 96 105 115 
0.0491041 0.00943727 0.470161 110 119 129 
0.0497731 0.00941877 0.469239 124 134 141 
0.05053 0.00941719 0.469161 125 135 142 
0.0512284 0.0094049 0.468549 135 144 154 
0.051968 0.00940045 0.468327 138 147 157 
0.0527002 0.00939479 0.468045 147 149 159 
0.0534457 0.00939164 0.467888 148 150 160 
0.054182 0.00938699 0.467656 148 153 162 
0.0549032 0.00937988 0.467302 150 155 164 
0.0556275 0.0093735 0.466984 153 160 168 
0.0563588 0.00936843 0.466732 157 164 172 
0.0570753 0.0093611 0.466366 160 167 171 
0.057798 0.00935495 0.46606 163 170 174 
0.0585189 0.00934866 0.465746 163 171 172 
0.0592516 0.0093444 0.465534 160 168 169 
0.060019 0.00934566 0.465597 156 164 165 
0.0607599 0.00934281 0.465455 153 161 162 
0.0615007 0.00934002 0.465316 148 154 156 
0.0622484 0.00933832 0.465232 143 149 151 
0.062983 0.00933474 0.465053 141 146 153 
0.0637407 0.00933461 0.465046 136 141 148 
0.0644963 0.00933418 0.465025 131 140 152 
0.0652575 0.00933457 0.465045 130 139 151 
0.0660143 0.00933432 0.465032 128 137 149 
0.0667659 0.00933335 0.464984 130 139 151 
0.0675213 0.00933294 0.464963 132 141 153 
0.0682578 0.00932994 0.464814 135 144 156 
0.0690189 0.00933034 0.464834 138 147 159 
0.0697769 0.00933031 0.464832 139 148 160 
0.0705352 0.00933033 0.464833 142 151 163 
0.0712721 0.00932754 0.464694 139 148 160 
0.072029 0.00932739 0.464687 134 145 154 
0.0727896 0.00932773 0.464704 130 141 150 
0.0735542 0.00932858 0.464746 129 140 149 
0.0743343 0.00933135 0.464884 118 129 138 
0.0751201 0.00933477 0.465055 115 125 139 
0.0758934 0.00933658 0.465145 107 117 131 
0.0766583 0.00933734 0.465183 100 108 125 
0.0403884 0.010532 0.485225 45 56 54 
0.04095 0.0104733 0.482517 47 58 56 
0.0416102 0.0104414 0.48105 50 61 59 
0.042306 0.0104195 0.480042 53 64 62 
0.0430246 0.010404 0.479324 60 68 67 
0.0437096 0.010381 0.478265 63 71 70 
0.0444145 0.0103634 0.477456 70 76 78 
0.0451194 0.0103465 0.476676 73 79 81 
0.0458347 0.0103325 0.47603 78 85 91 
0.0464499 0.0102967 0.474383 86 93 99 
0.0471368 0.0102778 0.47351 95 101 112 
0.0478106 0.0102566 0.472536 100 106 117 
0.0484885 0.010237 0.471633 109 116 124 
0.0491056 0.0102054 0.470176 121 128 136 
0.0498476 0.0102003 0.469941 131 138 144 
0.0505921 0.0101959 0.469737 135 142 148 
0.0512844 0.0101812 0.469061 139 146 154 
0.0520219 0.0101758 0.468812 141 148 156 
0.0527597 0.0101706 0.468573 148 150 160 
0.0534933 0.0101648 0.468305 148 150 160 
0.0542301 0.0101597 0.468071 150 155 164 
0.0549524 0.0101521 0.467721 154 159 168 
0.0556836 0.0101463 0.467454 157 162 169 
0.0564132 0.0101404 0.467182 161 166 173 
0.0571282 0.0101321 0.466798 161 167 169 
0.0578505 0.0101252 0.466483 160 166 168 
0.0585788 0.0101196 0.466223 161 167 167 
0.0593101 0.0101146 0.465995 158 164 164 
0.0600797 0.0101162 0.466068 154 160 162 
0.0608239 0.0101136 0.465946 148 154 156 
0.061577 0.0101124 0.465893 146 152 154 
0.0623342 0.010112 0.465873 141 147 149 
0.063068 0.0101078 0.46568 138 145 151 
0.0638283 0.0101079 0.465686 134 141 147 
0.0645885 0.010108 0.46569 130 139 151 
0.0653444 0.0101075 0.465664 130 139 151 
0.0661039 0.0101074 0.465663 131 140 152 
0.0668638 0.0101075 0.465666 133 142 154 
0.0676278 0.0101082 0.465696 136 145 157 
0.0683603 0.0101042 0.465512 137 146 158 
0.0691196 0.0101042 0.465512 137 146 158 
0.0698813 0.0101045 0.465528 140 149 161 
0.070649 0.0101057 0.465583 140 149 161 
0.0713805 0.0101017 0.465401 137 146 158 
0.0721449 0.0101025 0.465435 131 142 153 
0.0729128 0.0101037 0.46549 124 135 146 
0.0737097 0.0101089 0.465729 120 131 142 
0.074506 0.0101138 0.465958 110 121 132 
0.0752859 0.0101165 0.466081 104 114 128 
0.0760618 0.0101186 0.466177 97 107 121 
0.0402084 0.011274 0.483063 49 62 61 
0.0408719 0.0112397 0.481596 50 63 62 
0.0415851 0.0112202 0.48076 54 62 63 
0.0422912 0.0111996 0.479874 57 65 66 
0.0430009 0.0111806 0.47906 63 71 72 
0.0436913 0.0111573 0.478065 68 76 77 
0.0444131 0.0111428 0.477441 73 79 81 
0.0451176 0.0111245 0.476657 77 83 85 
0.0458259 0.0111077 0.475938 86 93 99 
0.0464504 0.0110715 0.474388 91 98 104 
0.0471571 0.0110558 0.473714 99 105 116 
0.0478322 0.0110333 0.47275 100 106 117 
0.0484089 0.0109892 0.470859 119 126 132 
0.0491547 0.0109842 0.470646 127 134 140 
0.0498913 0.0109774 0.470354 134 141 147 
0.050632 0.0109716 0.470107 137 144 150 
0.0513312 0.0109572 0.469489 140 145 152 
0.0520756 0.0109527 0.469296 143 148 155 
0.0528045 0.0109451 0.468972 145 150 157 
0.0535404 0.0109392 0.468717 149 154 161 
0.0542867 0.0109355 0.468559 151 156 163 
0.055014 0.0109281 0.468245 155 160 167 
0.0557394 0.0109206 0.467923 158 163 170 
0.0564694 0.0109142 0.467647 163 168 175 
0.0571906 0.0109063 0.467308 165 168 171 
0.0579182 0.0108998 0.467028 164 167 170 
0.058642 0.0108927 0.466727 162 165 168 
0.0593708 0.0108868 0.466471 157 160 163 
0.0601457 0.0108893 0.46658 153 159 161 
0.0608928 0.0108868 0.466474 146 152 154 
0.0616455 0.0108854 0.466412 142 148 150 
0.0623997 0.0108842 0.466362 139 145 147 
0.0631556 0.0108834 0.466327 134 141 149 
0.0639144 0.0108831 0.466314 132 139 147 
0.0646769 0.0108834 0.466328 130 139 149 
0.0654402 0.0108838 0.466347 132 141 151 
0.0661987 0.0108835 0.466331 135 144 154 
0.0669604 0.0108837 0.466339 136 145 155 
0.0677234 0.010884 0.466355 137 146 156 
0.0684669 0.0108813 0.466238 139 148 158 
0.0692272 0.0108813 0.466236 139 148 158 
0.0699898 0.0108816 0.466251 137 146 156 
0.0707559 0.0108825 0.466287 135 146 157 
0.071506 0.0108809 0.466219 132 143 154 
0.072277 0.0108825 0.466287 123 133 147 
0.07306 0.0108858 0.46643 120 130 144 
0.073861 0.0108917 0.466684 115 126 137 
0.0746605 0.0108973 0.466924 104 115 126 
0.0754449 0.0109006 0.467065 100 111 122 
0.0394111 0.01206 0.482947 50 60 63 
0.0401437 0.0120434 0.482285 51 61 64 
0.0408637 0.0120238 0.4815 53 63 66 
0.0415644 0.0119994 0.48052 54 64 67 
0.0422463 0.0119705 0.479364 60 70 73 
0.0429882 0.0119594 0.478919 69 76 80 
0.0437116 0.0119436 0.478287 71 78 82 
0.0444201 0.0119244 0.477517 80 85 90 
0.0451114 0.0119012 0.476591 91 96 101 
0.0458155 0.0118823 0.475831 97 102 111 
0.0464324 0.0118416 0.474205 103 108 117 
0.0471247 0.0118213 0.473389 105 110 119 
0.0477719 0.0117904 0.472154 118 123 132 
0.0485012 0.0117805 0.471757 126 131 138 
0.0492344 0.0117718 0.471409 135 140 147 
0.0499682 0.0117636 0.471078 138 143 150 
0.0507182 0.0117593 0.470908 138 143 150 
0.0514232 0.0117449 0.470331 140 145 152 
0.0521557 0.0117371 0.470018 143 148 155 
0.0528909 0.0117301 0.469739 145 152 158 
0.0536388 0.0117261 0.469578 149 156 162 
0.0543849 0.0117219 0.469407 153 160 166 
0.0551079 0.0117128 0.469045 155 162 168 
0.0558414 0.0117062 0.468779 161 166 171 
0.0565826 0.0117013 0.468586 163 168 173 
0.0572901 0.0116897 0.468121 165 167 173 
0.05802 0.011683 0.46785 162 164 170 
0.0587608 0.0116785 0.467672 158 161 164 
0.0595105 0.0116759 0.467569 153 156 159 
0.0602547 0.0116724 0.467426 147 153 155 
0.0609958 0.0116683 0.467262 141 147 149 
0.0617477 0.0116663 0.467185 138 143 150 
0.0625158 0.0116675 0.46723 133 138 145 
0.0632793 0.0116677 0.46724 133 137 149 
0.0640328 0.0116662 0.467178 132 136 148 
0.0647999 0.0116671 0.467214 131 140 150 
0.0655607 0.0116669 0.467205 133 142 152 
0.06632 0.0116664 0.467186 136 145 155 
0.0670829 0.0116665 0.467191 136 145 155 
0.067851 0.0116676 0.467233 137 147 154 
0.0686162 0.0116681 0.467254 139 149 156 
0.0693763 0.0116677 0.467241 136 147 156 
0.0701438 0.0116686 0.467277 132 143 152 
0.0709197 0.0116709 0.467367 129 140 151 
0.0716553 0.0116665 0.467193 123 134 145 
0.072425 0.0116678 0.467242 117 128 139 
0.0732038 0.0116704 0.467349 114 125 136 
0.0739935 0.0116748 0.467522 108 119 130 
0.0747489 0.0116736 0.467477 99 110 121 
0.0386822 0.0128682 0.483684 49 56 60 
0.0393806 0.0128387 0.482574 55 62 66 
0.0401394 0.0128297 0.482234 53 63 68 
0.0408397 0.0128026 0.481217 54 64 69 
0.0415621 0.0127834 0.480494 58 68 71 
0.04224 0.0127514 0.479293 62 72 75 
0.0430042 0.0127462 0.479098 70 77 81 
0.0436934 0.0127194 0.478088 75 82 86 
0.0444252 0.0127056 0.477571 84 89 96 
0.0451042 0.0126775 0.476515 93 98 105 
0.0458196 0.0126604 0.475873 99 106 114 
0.0464371 0.0126173 0.474252 107 114 122 
0.0470911 0.0125854 0.473051 119 121 131 
0.0478209 0.0125744 0.472638 127 129 139 
0.0485426 0.0125616 0.47216 129 131 139 
0.0492857 0.0125548 0.471901 138 140 148 
0.0500173 0.0125452 0.471541 140 145 152 
0.0507587 0.0125383 0.471284 141 146 153 
0.0514623 0.0125225 0.470688 141 146 153 
0.052194 0.0125138 0.470363 145 150 157 
0.0529272 0.0125058 0.470061 146 153 159 
0.0536682 0.0124998 0.469836 150 157 163 
0.0544257 0.0124978 0.469759 150 157 163 
0.0551552 0.0124895 0.469447 155 162 168 
0.0558899 0.0124825 0.469186 161 166 171 
0.0566311 0.0124772 0.468987 161 166 171 
0.0573355 0.0124641 0.468492 156 161 166 
0.0580741 0.0124586 0.468286 154 159 164 
0.0588152 0.0124538 0.468105 147 152 157 
0.0595658 0.0124511 0.468004 146 151 156 
0.0603156 0.0124483 0.467898 138 143 150 
0.061068 0.0124461 0.467816 138 143 150 
0.0618229 0.0124444 0.467754 136 141 150 
0.0625887 0.012445 0.467775 132 137 146 
0.0633556 0.0124458 0.467804 132 139 147 
0.0641099 0.0124441 0.46774 130 137 145 
0.0648718 0.0124439 0.467733 130 139 149 
0.0656445 0.0124457 0.467802 131 140 150 
0.0664075 0.0124457 0.467802 135 146 155 
0.0671672 0.0124451 0.467779 134 145 154 
0.0679333 0.0124457 0.4678 136 147 156 
0.0686975 0.0124459 0.467808 138 149 158 
0.069469 0.0124474 0.467865 135 146 155 
0.0702447 0.0124496 0.467948 130 141 150 
0.0710251 0.0124526 0.468062 127 138 149 
0.0717789 0.0124509 0.467998 120 131 142 
0.0725691 0.0124555 0.468172 113 123 137 
0.0733517 0.0124588 0.468293 106 116 130 
0.0741375 0.0124625 0.468432 97 105 120 
0.0379423 0.0136758 0.484309 48 56 57 
0.0386419 0.0136439 0.48318 52 59 65 
0.0393797 0.0136265 0.482562 55 62 68 
0.0401386 0.0136169 0.482224 55 65 70 
0.0408351 0.0135869 0.481163 57 67 72 
0.0415565 0.0135662 0.48043 60 70 73 
0.0422659 0.0135424 0.479586 68 78 81 
0.0429921 0.0135248 0.478962 77 82 87 
0.0437025 0.0135029 0.478187 83 88 93 
0.044417 0.013483 0.477483 93 98 107 
0.0451172 0.0134596 0.476653 96 101 110 
0.0458182 0.0134372 0.475859 105 112 120 
0.0464181 0.0133863 0.474059 113 120 128 
0.0471444 0.013373 0.473587 126 128 138 
0.0478683 0.0133595 0.473107 131 133 143 
0.0485854 0.0133445 0.472575 135 137 145 
0.0493277 0.0133367 0.472303 137 139 147 
0.0500691 0.013329 0.472029 140 145 152 
0.0508048 0.01332 0.471711 142 147 154 
0.0515046 0.0133021 0.471075 140 145 150 
0.0522373 0.013293 0.470753 147 152 157 
0.0529752 0.0132855 0.470488 147 154 158 
0.0537122 0.013278 0.470221 154 161 165 
0.0544693 0.0132756 0.470135 156 163 167 
0.0552016 0.0132673 0.469842 156 163 167 
0.0559464 0.0132621 0.46966 162 167 174 
0.0566898 0.0132569 0.469473 157 162 169 
0.0573944 0.0132427 0.468973 154 159 166 
0.0581365 0.0132375 0.468789 150 155 162 
0.0588857 0.0132341 0.468666 145 150 157 
0.0596383 0.0132314 0.468573 140 145 152 
0.0603908 0.0132289 0.468482 135 140 149 
0.0611447 0.0132266 0.468403 134 139 148 
0.0619104 0.013227 0.468415 134 141 149 
0.0626876 0.0132298 0.468514 135 142 150 
0.0634361 0.0132265 0.468398 131 141 148 
0.0641979 0.013226 0.468382 130 140 147 
0.0649603 0.0132257 0.468371 132 143 154 
0.0657342 0.0132277 0.468442 132 143 154 
0.0664985 0.0132278 0.468443 135 146 157 
0.067263 0.0132278 0.468446 137 148 159 
0.0680325 0.0132289 0.468483 136 147 156 
0.0687903 0.0132277 0.46844 134 145 154 
0.0695708 0.0132308 0.468551 131 140 150 
0.0703545 0.0132345 0.46868 126 135 145 
0.0711589 0.0132419 0.468943 122 133 144 
0.0719234 0.0132418 0.46894 111 122 133 
0.0727131 0.0132463 0.469101 102 114 128 
0.0735055 0.0132513 0.469275 97 109 123 
0.0372636 0.01451 0.48576 48 56 55 
0.037888 0.014446 0.483616 49 57 56 
0.0386223 0.0144256 0.482934 54 61 67 
0.0393787 0.0144141 0.48255 57 64 70 
0.0401295 0.0144011 0.482114 58 68 75 
0.0408261 0.0143695 0.481057 60 70 77 
0.0415501 0.0143486 0.480355 66 76 81 
0.0422622 0.0143244 0.479545 73 83 88 
0.0429852 0.0143047 0.478885 82 87 94 
0.0436968 0.014282 0.478125 89 94 101 
0.0444236 0.0142649 0.477555 97 102 111 
0.0451224 0.0142396 0.476707 101 106 115 
0.0458252 0.0142164 0.475931 111 116 125 
0.0464571 0.0141724 0.474457 121 126 135 
0.0471826 0.0141579 0.47397 130 132 142 
0.0479067 0.0141434 0.473486 136 138 148 
0.0486274 0.0141284 0.472984 135 140 149 
0.0493751 0.0141216 0.472757 136 141 150 
0.0501086 0.014111 0.472402 139 144 151 
0.0508417 0.0141006 0.472054 142 147 154 
0.0515474 0.0140831 0.471466 142 147 152 
0.0522855 0.0140748 0.471188 149 154 159 
0.0530168 0.0140649 0.470857 155 160 165 
0.0537556 0.0140572 0.470601 156 161 166 
0.0545133 0.0140547 0.470516 157 164 168 
0.0552558 0.0140483 0.470303 159 166 170 
0.056 0.0140426 0.47011 157 162 167 
0.0567474 0.0140378 0.46995 154 159 164 
0.0574634 0.0140254 0.469537 149 154 159 
0.0582124 0.0140214 0.469401 143 148 153 
0.0589618 0.0140175 0.469271 138 145 151 
0.0597178 0.0140153 0.469198 137 144 150 
0.0604752 0.0140135 0.469136 134 141 147 
0.0612321 0.0140116 0.469072 131 138 144 
0.0619998 0.0140122 0.469093 130 137 145 
0.0627614 0.0140114 0.469066 133 140 148 
0.0635248 0.014011 0.469053 130 140 147 
0.0642845 0.0140098 0.469014 132 142 149 
0.0650444 0.0140087 0.468977 135 146 157 
0.065832 0.0140135 0.469139 135 146 157 
0.0665958 0.0140132 0.469129 136 147 158 
0.0673604 0.0140131 0.469124 136 147 158 
0.068127 0.0140134 0.469134 135 146 157 
0.0689056 0.0140161 0.469225 129 140 151 
0.0696894 0.0140198 0.46935 125 134 146 
0.0704866 0.0140261 0.46956 118 127 139 
0.0712932 0.0140341 0.469828 110 121 132 
0.0720742 0.014037 0.469924 103 114 125 
0.0728736 0.0140433 0.470136 95 107 121 
0.0365487 0.0153358 0.486791 50 58 57 
0.037236 0.015292 0.4854 53 59 59 
0.0379503 0.0152608 0.484411 53 59 59 
0.0386662 0.0152316 0.483483 55 62 66 
0.0393764 0.0152013 0.482523 59 66 70 
0.0401296 0.0151885 0.482116 60 70 77 
0.0408703 0.0151715 0.481577 64 74 81 
0.0415888 0.0151471 0.480802 72 82 89 
0.0422857 0.0151159 0.479812 77 87 94 
0.0430094 0.0150952 0.479155 86 91 100 
0.043695 0.0150622 0.478106 96 101 110 
0.0444212 0.015044 0.477528 104 109 118 
0.045103 0.0150117 0.476503 113 118 127 
0.0458047 0.014987 0.475719 118 123 132 
0.0465356 0.0149725 0.475258 128 133 142 
0.0472681 0.014959 0.47483 134 136 146 
0.04801 0.0149488 0.474507 136 138 148 
0.048731 0.0149326 0.473992 136 141 150 
0.0494542 0.0149175 0.473514 138 143 152 
0.0501826 0.0149045 0.4731 140 145 152 
0.0509232 0.0148954 0.472811 143 148 155 
0.0516418 0.0148802 0.472329 150 152 158 
0.0523748 0.0148696 0.471992 156 158 164 
0.0531143 0.0148611 0.471723 158 161 164 
0.0538646 0.0148558 0.471555 160 163 166 
0.054589 0.0148436 0.471169 157 163 165 
0.0553275 0.0148356 0.470913 155 161 163 
0.0560759 0.0148304 0.470747 153 159 161 
0.0568261 0.0148258 0.470602 150 156 158 
0.0575542 0.0148156 0.470279 143 145 151 
0.0583046 0.0148114 0.470145 142 144 150 
0.0590607 0.0148087 0.470059 133 140 146 
0.0598242 0.0148079 0.470033 132 139 145 
0.0605854 0.0148065 0.469991 131 138 144 
0.0613416 0.014804 0.469912 130 137 143 
0.062107 0.0148038 0.469903 130 137 145 
0.0628685 0.0148026 0.469866 132 139 147 
0.0636299 0.0148014 0.469829 133 143 150 
0.0643937 0.0148008 0.469811 132 142 149 
0.0651667 0.0148024 0.469859 136 147 156 
0.06594 0.0148039 0.469908 135 146 155 
0.0667062 0.0148039 0.469906 135 146 157 
0.067485 0.0148065 0.469992 134 145 156 
0.0682778 0.0148122 0.470172 131 140 152 
0.069031 0.0148093 0.470079 124 133 145 
0.0698119 0.0148123 0.470174 119 128 140 
0.0706077 0.0148184 0.470367 112 121 133 
0.0714164 0.014827 0.47064 104 115 126 
0.0722091 0.0148321 0.470803 95 106 117 
0.0364822 0.0161014 0.485905 51 57 55 
0.0372288 0.0160815 0.485306 53 59 57 
0.037923 0.0160404 0.484063 56 62 60 
0.0386577 0.0160176 0.483377 58 64 64 
0.0393614 0.0159832 0.482339 63 69 69 
0.0401299 0.0159759 0.482119 64 74 79 
0.0408397 0.015946 0.481217 69 79 84 
0.0415724 0.015926 0.480613 77 83 94 
0.0422628 0.0158909 0.479552 82 88 99 
0.0429951 0.0158725 0.478996 94 98 110 
0.0436798 0.0158374 0.477939 104 108 120 
0.0444147 0.0158215 0.477459 109 116 122 
0.0451147 0.0157939 0.476627 117 124 130 
0.045818 0.0157684 0.475856 123 130 136 
0.0465613 0.0157573 0.475521 130 137 143 
0.047294 0.015743 0.47509 135 137 145 
0.0480375 0.0157327 0.474779 138 140 148 
0.0487636 0.0157171 0.474309 138 143 152 
0.0494964 0.0157042 0.473918 140 145 154 
0.0502264 0.0156907 0.473512 142 147 154 
0.0509625 0.0156796 0.473175 146 151 158 
0.0516915 0.0156666 0.472785 150 156 158 
0.052428 0.0156563 0.472472 154 160 162 
0.053169 0.0156475 0.472209 159 162 165 
0.0539198 0.0156419 0.472038 158 161 164 
0.0546424 0.0156284 0.47163 156 162 164 
0.0553869 0.0156214 0.471419 151 157 159 
0.0561338 0.0156152 0.471234 146 152 154 
0.0568864 0.0156108 0.471101 141 147 149 
0.0576239 0.0156025 0.470849 136 141 146 
0.0583801 0.0155993 0.470753 134 139 144 
0.0591376 0.0155966 0.470671 128 135 143 
0.059898 0.0155947 0.470614 128 135 143 
0.0606736 0.0155967 0.470675 130 137 145 
0.0614368 0.0155956 0.470641 128 135 143 
0.0622067 0.0155961 0.470657 129 139 146 
0.062962 0.0155931 0.470565 131 141 148 
0.06373 0.0155932 0.470568 132 142 149 
0.0644894 0.0155912 0.470509 136 146 153 
0.0652559 0.015591 0.470502 136 148 154 
0.0660339 0.0155935 0.470578 135 147 153 
0.0668133 0.0155962 0.470661 131 142 151 
0.0675973 0.0156 0.470774 129 140 149 
0.0683956 0.0156069 0.470984 125 134 144 
0.0691479 0.0156033 0.470875 121 130 140 
0.0699492 0.0156108 0.471099 114 123 135 
0.0707503 0.015618 0.471317 109 118 130 
0.0349654 0.016928 0.486857 45 48 49 
0.0356913 0.0168957 0.485928 47 53 53 
0.0364562 0.0168828 0.485558 49 55 55 
0.0372207 0.0168704 0.485201 54 60 58 
0.0379095 0.0168248 0.48389 58 64 62 
0.0386438 0.016801 0.483204 62 68 68 
0.039375 0.0167767 0.482505 69 75 75 
0.0401133 0.0167563 0.481919 71 78 84 
0.0408345 0.0167298 0.481156 77 84 90 
0.0415516 0.0167025 0.480372 81 88 96 
0.0422622 0.0166738 0.479545 89 96 104 
0.0429827 0.0166499 0.478858 100 105 114 
0.0436853 0.01662 0.477999 107 112 121 
0.0444204 0.0166033 0.47752 119 124 131 
0.0451305 0.0165781 0.476793 121 126 133 
0.0458451 0.0165553 0.476138 125 132 136 
0.046586 0.0165426 0.475773 131 138 142 
0.0473347 0.0165331 0.475498 134 139 144 
0.0480778 0.0165219 0.475178 138 143 148 
0.0487947 0.0165022 0.474612 139 144 149 
0.0495328 0.0164902 0.474266 141 146 151 
0.050277 0.0164806 0.473989 143 148 153 
0.0510135 0.0164688 0.473649 147 152 157 
0.0517435 0.0164552 0.47326 153 159 161 
0.0524816 0.0164446 0.472955 155 161 163 
0.053232 0.0164381 0.472768 156 159 162 
0.0539823 0.0164318 0.472585 153 156 159 
0.054705 0.0164173 0.47217 149 155 157 
0.0554484 0.0164094 0.471942 146 152 154 
0.0562032 0.016405 0.471816 140 145 150 
0.0569641 0.0164025 0.471744 138 143 148 
0.0577022 0.0163936 0.471489 134 139 146 
0.0584574 0.0163897 0.471377 131 136 143 
0.0592208 0.0163882 0.471333 124 134 141 
0.0599913 0.0163887 0.471347 124 134 141 
0.0607687 0.016391 0.471413 124 133 143 
0.0615348 0.0163903 0.471392 130 139 149 
0.0623159 0.0163935 0.471484 132 141 151 
0.0630622 0.0163876 0.471314 133 142 152 
0.0638289 0.016387 0.471298 136 145 155 
0.064596 0.0163866 0.471287 136 145 155 
0.0653658 0.0163869 0.471295 135 144 154 
0.0661486 0.0163904 0.471395 132 141 151 
0.0669334 0.0163943 0.471507 130 140 147 
0.0677285 0.0164006 0.471688 122 132 139 
0.0685513 0.0164134 0.472056 119 126 134 
0.0692938 0.0164068 0.471868 116 123 131 
0.0700937 0.0164139 0.472073 103 112 124 
0.0709036 0.0164232 0.472338 97 106 118 
0.0350295 0.0177555 0.487749 43 51 52 
0.0357454 0.017716 0.486664 48 56 55 
0.0364529 0.0176742 0.485515 52 60 59 
0.0372171 0.0176611 0.485154 56 62 62 
0.0379508 0.0176343 0.484418 63 69 69 
0.0386901 0.0176111 0.483782 69 75 77 
0.0394172 0.0175835 0.483022 73 79 81 
0.0401631 0.0175651 0.482519 76 83 89 
0.0408432 0.0175193 0.481259 83 90 96 
0.0415879 0.0175023 0.480792 90 97 103 
0.0423199 0.0174807 0.4802 104 111 117 
0.0429838 0.0174323 0.478869 111 116 123 
0.0436959 0.0174048 0.478115 114 119 126 
0.0443984 0.0173746 0.477283 122 127 132 
0.0451492 0.0173639 0.476991 128 133 138 
0.0458734 0.0173436 0.476432 131 138 142 
0.0466229 0.0173333 0.47615 132 139 143 
0.0473658 0.017321 0.475811 135 140 145 
0.0481108 0.0173098 0.475504 138 143 148 
0.0488335 0.017291 0.474989 142 147 152 
0.0495783 0.0172806 0.474702 143 148 153 
0.0503165 0.0172682 0.474362 146 153 157 
0.0510574 0.0172571 0.474057 148 155 159 
0.0517948 0.0172452 0.473729 154 162 163 
0.0525423 0.0172369 0.473502 154 162 163 
0.0532873 0.0172281 0.473259 154 160 162 
0.0540425 0.0172227 0.473113 148 154 156 
0.0547723 0.0172096 0.472751 145 151 153 
0.055523 0.0172032 0.472577 142 148 150 
0.0562799 0.017199 0.47246 138 143 148 
0.0570399 0.0171958 0.472373 133 138 143 
0.0577848 0.0171882 0.472163 131 138 146 
0.0585453 0.0171853 0.472085 126 133 141 
0.0593157 0.0171854 0.472089 123 134 143 
0.0600868 0.0171857 0.472097 124 135 144 
0.0608606 0.0171868 0.472126 124 135 144 
0.061633 0.0171875 0.472144 128 139 148 
0.0624085 0.0171889 0.472184 128 141 152 
0.0631683 0.0171861 0.472107 133 146 157 
0.0639391 0.0171863 0.472112 136 147 158 
0.0647031 0.0171847 0.472068 136 147 158 
0.0654746 0.0171851 0.472079 135 144 154 
0.0662813 0.0171946 0.47234 128 137 147 
0.0670718 0.0171998 0.472482 125 131 142 
0.0678808 0.0172095 0.472748 119 125 136 
0.0686943 0.0172201 0.473041 110 120 127 
0.0694549 0.0172174 0.472965 104 114 121 
0.0702625 0.0172262 0.473209 96 107 116 
0.0342897 0.0185823 0.488544 42 49 53 
0.034998 0.0185354 0.48731 46 53 57 
0.0357338 0.0185048 0.486507 51 61 64 
0.036448 0.0184646 0.485449 53 63 66 
0.0372184 0.018454 0.485171 57 67 70 
0.0379244 0.0184126 0.484081 60 70 73 
0.0386672 0.0183903 0.483496 68 75 83 
0.0393919 0.0183605 0.482712 76 83 91 
0.040144 0.0183444 0.482288 79 89 96 
0.0408371 0.0183024 0.481186 86 96 103 
0.041584 0.0182858 0.480748 96 106 111 
0.0423265 0.0182678 0.480275 105 115 120 
0.0430778 0.0182542 0.479917 115 120 125 
0.0437387 0.0182034 0.478584 122 127 132 
0.0444833 0.0181887 0.478197 125 130 135 
0.0452391 0.018179 0.477941 128 133 138 
0.0459732 0.018161 0.477469 129 134 139 
0.0467262 0.018151 0.477205 132 137 142 
0.0474781 0.0181409 0.476939 135 140 145 
0.0482002 0.0181199 0.476387 139 144 149 
0.0489114 0.0180955 0.475747 141 146 151 
0.0496505 0.0180821 0.475393 145 150 155 
0.0503919 0.0180699 0.475073 149 154 159 
0.0511436 0.0180617 0.474858 150 155 160 
0.0518955 0.0180538 0.47465 151 156 161 
0.052633 0.0180412 0.474319 154 159 164 
0.0533817 0.0180328 0.474098 150 155 160 
0.0541377 0.018027 0.473946 145 150 155 
0.0548719 0.0180143 0.473611 139 144 149 
0.0556177 0.0180056 0.473383 136 141 146 
0.0563756 0.0180011 0.473264 133 138 145 
0.0571379 0.0179981 0.473184 129 134 141 
0.0578868 0.017991 0.472997 125 135 140 
0.0586449 0.0179868 0.472888 124 134 139 
0.0594048 0.0179834 0.472798 125 137 143 
0.060172 0.0179822 0.472767 127 139 145 
0.0609434 0.0179823 0.472768 129 140 149 
0.0617112 0.0179813 0.472743 129 140 149 
0.0624878 0.0179829 0.472785 130 146 154 
0.0632558 0.017982 0.472761 133 149 157 
0.0640274 0.0179821 0.472764 137 148 159 
0.0648108 0.0179855 0.472854 132 143 154 
0.0656027 0.0179912 0.473002 128 137 149 
0.0663764 0.0179917 0.473018 125 134 146 
0.0671664 0.0179967 0.473148 117 126 138 
0.06797 0.0180051 0.47337 110 119 131 
0.0687819 0.0180155 0.473644 103 112 122 
0.0335392 0.0194069 0.48922 43 49 51 
0.0342917 0.0193812 0.488572 44 55 55 
0.0349821 0.0193224 0.48709 45 56 56 
0.0357181 0.0192908 0.486292 52 62 67 
0.0364619 0.0192647 0.485635 58 68 73 
0.0372058 0.0192398 0.485007 60 70 73 
0.037914 0.0191978 0.483948 66 76 79 
0.0386504 0.0191715 0.483286 71 78 86 
0.0393866 0.0191462 0.482647 84 91 99 
0.0401356 0.019128 0.482188 89 99 106 
0.0408491 0.0190938 0.481327 97 107 114 
0.041596 0.0190763 0.480886 103 111 112 
0.0423465 0.0190611 0.480502 112 120 121 
0.0430155 0.0190104 0.479223 120 126 128 
0.0437591 0.0189939 0.478807 124 130 132 
0.0445109 0.0189814 0.478493 125 131 133 
0.0452667 0.018971 0.478232 128 134 136 
0.0460089 0.0189555 0.477839 129 134 139 
0.0467664 0.0189466 0.477615 132 137 142 
0.0475279 0.0189396 0.477439 135 140 145 
0.0482902 0.0189331 0.477276 141 146 151 
0.0490123 0.0189114 0.476728 144 146 152 
0.0497568 0.0188988 0.476411 150 152 158 
0.0505089 0.0188895 0.476176 153 155 161 
0.0512551 0.0188783 0.475893 152 154 160 
0.0519956 0.0188653 0.475566 152 154 160 
0.0527432 0.0188552 0.475312 150 152 158 
0.0534998 0.0188486 0.475146 145 150 157 
0.0541896 0.0188191 0.474401 140 145 152 
0.0549323 0.0188084 0.474132 135 140 147 
0.0556911 0.0188035 0.474008 128 133 140 
0.0564527 0.0187997 0.473911 129 134 141 
0.0572186 0.0187973 0.473852 127 132 139 
0.0579873 0.0187959 0.473818 125 135 140 
0.0587501 0.0187927 0.473737 126 136 141 
0.0595072 0.0187878 0.473612 127 139 145 
0.0602969 0.0187932 0.473748 130 142 148 
0.061065 0.0187917 0.473712 131 142 151 
0.0618245 0.0187877 0.47361 130 141 150 
0.0625901 0.0187857 0.473559 130 143 152 
0.0633569 0.018784 0.473516 133 146 155 
0.0641446 0.0187885 0.47363 130 143 154 
0.0649288 0.0187918 0.473715 126 139 150 
0.0657235 0.0187981 0.473873 124 133 145 
0.0665004 0.0187993 0.473902 119 128 140 
0.0673091 0.0188092 0.474153 116 124 139 
0.068111 0.0188171 0.474352 104 112 127 
0.0327619 0.0202187 0.48953 43 50 54 
0.0335231 0.0201962 0.488986 46 53 57 
0.034275 0.0201693 0.488334 47 58 58 
0.0349723 0.0201122 0.486953 51 62 62 
0.0357125 0.0200818 0.486216 55 65 68 
0.0364541 0.0200535 0.485531 59 69 72 
0.0371842 0.0200202 0.484725 64 71 75 
0.0379091 0.0199855 0.483886 74 81 85 
0.038652 0.0199616 0.483306 77 87 92 
0.0393907 0.0199365 0.482698 87 97 102 
0.0401433 0.0199192 0.48228 90 100 105 
0.0408653 0.0198878 0.481519 102 112 117 
0.0416183 0.0198723 0.481144 111 119 120 
0.0423631 0.0198535 0.48069 118 126 127 
0.0430448 0.0198065 0.47955 121 129 130 
0.0437931 0.0197911 0.479179 125 133 134 
0.0445395 0.0197755 0.478801 128 134 136 
0.0452928 0.0197634 0.478508 133 139 141 
0.0460523 0.0197544 0.478289 132 138 140 
0.0468137 0.0197465 0.478099 133 139 141 
0.0475732 0.0197381 0.477894 138 143 148 
0.0483339 0.0197304 0.477709 143 148 153 
0.0490611 0.0197095 0.477203 149 152 155 
0.0498118 0.0196986 0.476938 151 154 157 
0.0505604 0.0196872 0.476661 152 155 158 
0.0513127 0.0196775 0.476428 150 153 156 
0.0520614 0.0196668 0.476168 148 150 156 
0.052813 0.0196574 0.475941 144 146 152 
0.0535682 0.0196497 0.475754 138 143 150 
0.0543293 0.0196443 0.475623 135 140 147 
0.0550864 0.0196376 0.475462 131 138 146 
0.0558585 0.0196364 0.475433 130 137 145 
0.0566364 0.0196373 0.475453 127 134 140 
0.0574185 0.0196395 0.475507 126 133 139 
0.0581994 0.0196413 0.475551 125 135 142 
0.0589664 0.0196384 0.475481 128 138 145 
0.059615 0.0195967 0.47447 130 139 149 
0.0604184 0.0196062 0.474702 133 142 152 
0.0611831 0.0196032 0.474627 132 143 152 
0.0619498 0.0196008 0.474571 132 143 152 
0.062721 0.0195999 0.474549 132 143 154 
0.0634769 0.0195943 0.474413 130 141 152 
0.0642689 0.0195999 0.474548 127 138 149 
0.0650703 0.0196081 0.474747 124 135 146 
0.0658945 0.0196229 0.475106 117 128 139 
0.0666498 0.0196172 0.474966 109 120 131 
0.067452 0.0196252 0.47516 101 111 125 
0.0682645 0.0196359 0.475421 96 106 120 
0.0320409 0.021069 0.490716 43 51 52 
0.0327815 0.0210306 0.489822 43 53 56 
0.0335058 0.0209839 0.488733 46 56 59 
0.0342645 0.0209603 0.488185 51 62 62 
0.0349994 0.0209236 0.48733 55 66 66 
0.0357467 0.0208958 0.486683 58 69 69 
0.0364917 0.0208679 0.486032 65 76 76 
0.0372402 0.0208431 0.485455 74 82 83 
0.0379772 0.0208131 0.484755 77 85 86 
0.0387344 0.0207951 0.484336 80 90 95 
0.0394739 0.0207685 0.483717 94 104 109 
0.040224 0.0207485 0.48325 98 108 113 
0.040923 0.0207033 0.482199 108 118 123 
0.0416708 0.0206841 0.481751 115 120 125 
0.042391 0.0206521 0.481007 119 124 129 
0.043113 0.0206222 0.48031 122 128 130 
0.0438582 0.0206043 0.479892 125 131 133 
0.0446126 0.0205912 0.479586 131 134 135 
0.0453755 0.0205824 0.479381 137 140 141 
0.0461153 0.0205636 0.478944 134 140 140 
0.0468641 0.0205494 0.478613 136 142 142 
0.0476182 0.0205379 0.478346 141 146 151 
0.0483852 0.0205323 0.478216 145 150 155 
0.0491339 0.0205192 0.477911 148 154 156 
0.0498812 0.020506 0.477602 150 156 158 
0.0506391 0.0204974 0.477403 149 155 157 
0.0514076 0.0204933 0.477308 145 151 153 
0.0521571 0.020482 0.477043 141 143 149 
0.0529053 0.0204704 0.476773 138 140 146 
0.0536681 0.0204647 0.476641 134 139 146 
0.0544397 0.0204625 0.47659 129 134 141 
0.0552007 0.0204564 0.476448 128 134 145 
0.0559708 0.0204539 0.476389 131 137 148 
0.0567479 0.0204539 0.476389 128 135 143 
0.0575337 0.020457 0.476462 125 132 140 
0.0583037 0.0204545 0.476403 125 134 144 
0.0590656 0.0204492 0.476281 131 140 150 
0.059845 0.0204501 0.476301 133 142 152 
0.0606204 0.0204496 0.476289 133 142 152 
0.0613869 0.0204462 0.476209 132 143 154 
0.0621621 0.0204456 0.476197 132 143 154 
0.0629497 0.0204492 0.476279 128 139 150 
0.0637055 0.0204424 0.476121 127 138 149 
0.0645071 0.0204503 0.476306 122 130 145 
0.0652315 0.0204339 0.475923 117 125 140 
0.0660485 0.0204465 0.476217 111 122 133 
0.0668168 0.0204439 0.476157 104 115 126 
0.0676262 0.0204538 0.476387 95 106 117 
0.0320159 0.0218533 0.490332 43 54 54 
0.0327661 0.0218203 0.489592 45 58 57 
0.0334958 0.0217755 0.488587 49 62 61 
0.0342568 0.0217527 0.488075 54 65 65 
0.0349804 0.0217077 0.487066 58 69 69 
0.0357321 0.0216817 0.486483 64 72 73 
0.0364725 0.0216502 0.485776 71 79 80 
0.0372245 0.0216268 0.48525 77 83 85 
0.0379736 0.0216026 0.484708 85 91 93 
0.0387303 0.0215837 0.484284 91 98 104 
0.0394742 0.0215586 0.483721 99 106 112 
0.040238 0.0215451 0.483418 108 113 120 
0.0409383 0.0214988 0.482379 113 118 125 
0.0416622 0.0214664 0.481652 119 121 127 
0.0424218 0.0214532 0.481356 123 125 131 
0.0431395 0.0214197 0.480605 126 128 134 
0.043896 0.0214064 0.480305 128 130 136 
0.0446477 0.0213912 0.479964 131 137 139 
0.0454106 0.0213818 0.479753 134 140 142 
0.0461708 0.0213714 0.479521 136 142 144 
0.0469233 0.0213579 0.479218 139 145 147 
0.0476755 0.0213448 0.478922 148 153 158 
0.0484376 0.0213363 0.478733 149 154 159 
0.0491814 0.0213203 0.478373 148 154 156 
0.0499383 0.0213103 0.478149 149 155 157 
0.0506953 0.0213007 0.477933 148 151 154 
0.0514616 0.0212952 0.47781 142 145 148 
0.0522214 0.0212872 0.477631 136 142 144 
0.0529781 0.0212782 0.477429 133 139 141 
0.0537427 0.0212726 0.477304 132 137 144 
0.0545168 0.0212709 0.477265 127 132 139 
0.0552878 0.021268 0.4772 125 131 142 
0.056062 0.0212664 0.477165 127 133 144 
0.0568406 0.0212666 0.477168 126 135 145 
0.0576242 0.0212685 0.477211 126 135 145 
